# .PCD v0.7 - Point Cloud Data file format
VERSION 0.7
FIELDS x y z rgb
SIZE 4 4 4 4
TYPE F F F U
COUNT 1 1 1 1
WIDTH 1147
HEIGHT 1
VIEWPOINT 0 0 0 1 0 0 0
POINTS 1147
DATA ascii
0.11382652 0.23622689 1.0975001 4289895822
0.11661098 0.23886357 1.10975 4289832859
0.11817817 0.23897119 1.11025 4290030238
0.11977368 0.23913263 1.1110001 4289572515
0.12145311 0.23945549 1.1125001 4290821562
0.12305372 0.23961692 1.11325 4290885821
0.12457247 0.23961692 1.11325 4291280577
0.12521343 0.23794882 1.1055001 4289569959
0.12663563 0.23778737 1.10475 4285951344
0.13121641 0.23789498 1.10525 4283978324
0.09269572 0.23728934 1.0955001 4289771192
0.09423323 0.23739764 1.0960001 4289902524
0.095750272 0.23745178 1.0962501 4290164408
0.097268 0.23750593 1.0965 4289833384
0.098786399 0.23756008 1.09675 4289568404
0.10025978 0.23750593 1.0965 4289828746
0.10175567 0.23750593 1.0965 4290222219
0.10325156 0.23750593 1.0965 4290222473
0.10472357 0.23745178 1.0962501 4290156678
0.10621913 0.23745178 1.0962501 4290156678
0.10769011 0.23739764 1.0960001 4290222471
0.10916042 0.23734349 1.0957501 4290156678
0.11068053 0.23739764 1.0960001 4290156680
0.11217574 0.23739764 1.0960001 4290156680
0.11369687 0.23745178 1.0962501 4290222219
0.11645336 0.24005102 1.10825 4290288525
0.11812495 0.24037592 1.10975 4290222732
0.11963891 0.24037592 1.10975 4289895052
0.12120747 0.24048422 1.11025 4289632398
0.12266685 0.24037592 1.10975 4290225310
0.1236493 0.23934706 1.105 4290883240
0.12507184 0.23918462 1.1042501 4287265399
0.12657832 0.23918462 1.1042501 4286014310
0.12808476 0.23918462 1.1042501 4284304724
0.12964991 0.2392929 1.10475 4283715154
0.091076307 0.23845534 1.0940001 4289836213
0.092611097 0.23856431 1.0945001 4289967547
0.094147243 0.23867328 1.095 4290032567
0.095662929 0.23872778 1.09525 4290030248
0.097179294 0.23878229 1.0955001 4289895570
0.09867382 0.23878229 1.0955001 4290025353
0.10014548 0.23872778 1.09525 4289893506
0.10163967 0.23872778 1.09525 4290287496
0.10313386 0.23872778 1.09525 4290221701
0.10460415 0.23867328 1.095 4290091398
0.106098 0.23867328 1.095 4290025605
0.10759185 0.23867328 1.095 4290090887
0.10906079 0.23861881 1.09475 4290287496
0.11057954 0.23867328 1.095 4290024324
0.11207338 0.23867328 1.095 4290090887
0.1136191 0.23878229 1.0955001 4290288012
0.11516616 0.23889126 1.0960001 4290025094
0.11799189 0.24161583 1.1085 4290156680
0.11955807 0.24172483 1.1090001 4289762433
0.12101642 0.24161583 1.1085 4290026377
0.12236287 0.24128887 1.107 4290222732
0.12350944 0.24058051 1.1037501 4290026123
0.12490194 0.24036254 1.1027501 4289302915
0.12643503 0.24041702 1.103 4287132526
0.12799777 0.24052601 1.1035 4285553498
0.1295619 0.24063499 1.1040001 4285554527
0.13115706 0.24079846 1.10475 4285294697
0.13272424 0.24090743 1.10525 4286808965
0.13432316 0.24107093 1.1060001 4288719013
0.13718297 0.24346857 1.1170001 4289508020
0.091013864 0.23978171 1.09325 4290427325
0.092547633 0.23989137 1.09375 4290032565
0.09406127 0.23994623 1.0940001 4290294705
0.095575593 0.24000105 1.0942501 4289699218
0.097068407 0.24000105 1.0942501 4289828996
0.098561227 0.24000105 1.0942501 4290091139
0.10005406 0.24000105 1.0942501 4290221955
0.10152368 0.23994623 1.0940001 4290352773
0.10299261 0.23989137 1.09375 4290353287
0.10448474 0.23989137 1.09375 4290090885
0.10597689 0.23989137 1.09375 4290025094
0.10746902 0.23989137 1.09375 4290221703
0.10896116 0.23989137 1.09375 4290155910
0.1104533 0.23989137 1.09375 4290155910
0.11197104 0.23994623 1.0940001 4290155908
0.11348945 0.24000105 1.0942501 4290155908
0.11508734 0.24022037 1.09525 4290288518
0.11671458 0.24049453 1.0965 4290222725
0.11826437 0.24060419 1.097 4290156678
0.11987013 0.24082354 1.098 4290090887
0.12145095 0.24098802 1.09875 4290090887
0.12314576 0.24137187 1.1005001 4289762181
0.12476036 0.24159119 1.1015 4289697158
0.12634906 0.24175569 1.1022501 4289369478
0.12793978 0.24192017 1.103 4288646271
0.12953256 0.24208468 1.1037501 4288316792
0.13112737 0.24224918 1.1045001 4288318085
0.13272424 0.24241365 1.10525 4287991948
0.13435352 0.242633 1.10625 4289968050
0.13696805 0.24460697 1.1152501 4289967031
0.085048035 0.24127159 1.09325 4287860626
0.086499922 0.24116124 1.0927501 4289835188
0.087970562 0.24110608 1.0925001 4290493118
0.089460999 0.24110608 1.0925001 4290164153
0.090972245 0.24116124 1.0927501 4290032565
0.092484176 0.24121641 1.0930001 4289703598
0.093996778 0.24127159 1.09325 4289174679
0.095488243 0.24127159 1.09325 4289828744
0.097001873 0.24132675 1.0935 4289959812
0.09847115 0.24127159 1.09325 4289828480
0.099939756 0.24121641 1.0930001 4290024322
0.10143087 0.24121641 1.0930001 4290220674
0.10289845 0.24116124 1.0927501 4290220676
0.10436534 0.24110608 1.0925001 4290023808
0.10585578 0.24110608 1.0925001 4290024576
0.10734621 0.24110608 1.0925001 4289958783
0.10883665 0.24110608 1.0925001 4289958529
0.11032708 0.24110608 1.0925001 4290089601
0.1118431 0.24116124 1.0927501 4290221953
0.1133598 0.24121641 1.0930001 4290089853
0.11498227 0.24149229 1.0942501 4290024574
0.11668798 0.24193366 1.0962501 4289958781
0.11826437 0.24209917 1.097 4290089855
0.11978825 0.24215436 1.0972501 4290155908
0.1213128 0.24220952 1.0975001 4290090887
0.12289397 0.24237503 1.09825 4290156680
0.12456215 0.24270608 1.09975 4290025353
0.12623443 0.24303712 1.1012501 4290025607
0.12785278 0.24325782 1.1022501 4289960584
0.12947388 0.24347849 1.10325 4289828744
0.1310977 0.24369919 1.1042501 4289434503
0.13272424 0.24391988 1.10525 4289304462
0.13438389 0.24419574 1.1065 4289502870
0.13613904 0.24463713 1.1085 4290161320
0.13858265 0.24629232 1.1160001 4290228659
0.083585188 0.24725805 1.1135 4285491563
0.083575688 0.24281695 1.0935 4287400850
0.086460344 0.24253941 1.0922501 4290229946
0.087930292 0.24248387 1.092 4290229944
0.08942005 0.24248387 1.092 4290098358
0.090930618 0.24253941 1.0922501 4289768874
0.09242072 0.24253941 1.0922501 4289437081
0.093932301 0.24259491 1.0925001 4289566089
0.095422737 0.24259491 1.0925001 4289696642
0.096913174 0.24259491 1.0925001 4289828228
0.098403603 0.24259491 1.0925001 4289762433
0.099871181 0.24253941 1.0922501 4289827713
0.10133807 0.24248387 1.092 4289826943
0.10278074 0.24237286 1.0915 4289958529
0.10424592 0.24231733 1.0912501 4290025344
0.10573466 0.24231733 1.0912501 4289827965
0.10722338 0.24231733 1.0912501 4289696894
0.10871212 0.24231733 1.0912501 4289893506
0.11022609 0.24237286 1.0915 4289958783
0.11171516 0.24237286 1.0915 4289958781
0.11320423 0.24237286 1.0915 4289761402
0.11456195 0.24209528 1.09025 4289762172
0.11572999 0.24142911 1.08725 4289958783
0.11715935 0.24131809 1.08675 4290024576
0.118833 0.24170668 1.0885 4289893506
0.12084302 0.24276145 1.09325 4289893506
0.12241841 0.242928 1.0940001 4290090885
0.12399583 0.24309453 1.09475 4290025092
0.12568994 0.24348313 1.0965 4289828226
0.12773679 0.24453789 1.1012501 4289828226
0.12944454 0.24492648 1.103 4289959814
0.1310977 0.24520406 1.1042501 4289959560
0.13272424 0.24542609 1.10525 4289894539
0.13444461 0.2458147 1.107 4289631367
0.13632326 0.24648085 1.11 4289959310
0.13867578 0.24797973 1.11675 4288514183
0.082735218 0.25553393 1.1437501 4284569695
0.083061077 0.25179169 1.1270001 4285096807
0.083472595 0.24844043 1.1120001 4286413952
0.08349926 0.24408378 1.0925001 4289179055
0.084931344 0.2439162 1.09175 4290033594
0.08642076 0.2439162 1.09175 4290426553
0.087890036 0.24386035 1.0915 4290622387
0.089379109 0.24386035 1.0915 4290688180
0.090888985 0.2439162 1.09175 4289437077
0.0923784 0.2439162 1.09175 4289173126
0.093889304 0.24397205 1.092 4289762435
0.095379062 0.24397205 1.092 4289761922
0.096868813 0.24397205 1.092 4290090885
0.098336041 0.2439162 1.09175 4289696127
0.099802598 0.24386035 1.0915 4289958783
0.10124527 0.24374865 1.0910001 4289958783
0.10268657 0.24363692 1.0905 4290024576
0.10415039 0.24358107 1.09025 4289827967
0.10561354 0.24352522 1.09 4289827967
0.107076 0.24346937 1.0897501 4289696127
0.10858759 0.24352522 1.09 4290091398
0.11007461 0.24352522 1.09 4289893760
0.11158723 0.24358107 1.09025 4289827967
0.1129968 0.24341352 1.0895001 4289828226
0.1140891 0.24257571 1.0857501 4289696894
0.11546388 0.24235228 1.0847501 4289762687
0.11702459 0.24251983 1.0855 4289631101
0.11861466 0.24274325 1.0865 4289696894
0.12037325 0.24330182 1.0890001 4289762174
0.12208271 0.24374865 1.0910001 4289960066
0.12368435 0.24397205 1.092 4289828480
0.12523143 0.24408378 1.0925001 4290025605
0.12695384 0.2445306 1.0945001 4289894789
0.12929784 0.24615037 1.10175 4289763718
0.1310977 0.24670893 1.1042501 4289631619
0.13278429 0.24704406 1.1057501 4289959560
0.13450535 0.24743503 1.1075001 4289892486
0.13620046 0.24777016 1.1090001 4288707183
0.13848951 0.24916653 1.1152501 4286929239
0.082916059 0.25765455 1.14625 4284570461
0.083669111 0.25518197 1.1352501 4286084985
0.083510123 0.25006822 1.1125001 4288191388
0.083441935 0.24540402 1.09175 4289771190
0.084892444 0.24529164 1.0912501 4289902008
0.086381182 0.24529164 1.0912501 4290360247
0.087869905 0.24529164 1.0912501 4289831072
0.089358643 0.24529164 1.0912501 4289567900
0.090868175 0.24534783 1.0915 4289631882
0.092357248 0.24534783 1.0915 4289565824
0.093867809 0.24540402 1.09175 4289499263
0.095335394 0.24534783 1.0915 4289695359
0.09682446 0.24534783 1.0915 4290024324
0.098268494 0.24523544 1.0910001 4290089601
0.099734031 0.24517925 1.0907501 4290024322
0.10117567 0.24506685 1.09025 4289958529
0.10259242 0.24489827 1.0895001 4289892736
0.10403099 0.24478589 1.0890001 4289892736
0.1054682 0.24467348 1.0885 4289892736
0.10690405 0.24456111 1.0880001 4289696127
0.10836344 0.24450491 1.0877501 4289892736
0.1097969 0.2443925 1.08725 4289958529
0.11112665 0.24405536 1.0857501 4289827713
0.11240044 0.24360578 1.08375 4289630334
0.11380013 0.2434372 1.0830001 4289696892
0.11533083 0.24354959 1.0835 4289566076
0.11688984 0.24371818 1.0842501 4289434490
0.11850548 0.24399914 1.0855 4289631871
0.12020744 0.24444872 1.0875001 4289696640
0.12191486 0.24489827 1.0895001 4289696894
0.12351445 0.24512304 1.0905 4289960066
0.12508814 0.24529164 1.0912501 4290156678
0.12666385 0.24546021 1.092 4289696640
0.12830031 0.24574119 1.09325 4289566078
0.13074154 0.24753945 1.1012501 4290025859
0.1328143 0.24860714 1.1060001 4289497980
0.13456605 0.2490567 1.108 4288509804
0.13644607 0.24973105 1.1110001 4287324762
0.138831 0.25130451 1.118 4286599504
0.082120359 0.2567291 1.1352501 4285821818
0.083097927 0.25497648 1.1275001 4287599251
0.083416291 0.25130165 1.11125 4289311150
0.083403721 0.24677877 1.0912501 4290100157
0.084872998 0.24672225 1.0910001 4290229174
0.086361393 0.24672225 1.0910001 4289370521
0.087849781 0.24672225 1.0910001 4290026638
0.089358643 0.24677877 1.0912501 4289500294
0.090868175 0.24683531 1.0915 4289499515
0.092357248 0.24683531 1.0915 4289762174
0.093846321 0.24683531 1.0915 4289696381
0.095313556 0.24677877 1.0912501 4289827197
0.096780106 0.24672225 1.0910001 4289695611
0.098223448 0.24660915 1.0905 4289892736
0.099665448 0.2464961 1.09 4289761150
0.10108287 0.24632649 1.0892501 4289695357
0.10252178 0.24621341 1.08875 4290023810
0.10393546 0.24604382 1.0880001 4290023808
0.10534708 0.24587418 1.08725 4290023808
0.10670754 0.24559154 1.0860001 4289892222
0.10808948 0.24536538 1.085 4289892736
0.1094182 0.24502616 1.0835 4289761150
0.11079402 0.24480003 1.0825001 4289892990
0.11221894 0.24468695 1.082 4289762174
0.11366878 0.24463041 1.08175 4289696892
0.11519777 0.24474348 1.08225 4289762687
0.11672813 0.24485657 1.0827501 4289762687
0.11834174 0.24513926 1.0840001 4289565308
0.12006927 0.24564806 1.0862501 4289565054
0.12174701 0.24604382 1.0880001 4289761920
0.12337288 0.24632649 1.0892501 4289826943
0.12497351 0.24655262 1.09025 4289826943
0.12654787 0.24672225 1.0910001 4289826429
0.12812427 0.24689184 1.09175 4289958529
0.12985112 0.24734412 1.09375 4289300601
0.13287434 0.25022745 1.1065 4288775027
0.13459642 0.2506232 1.10825 4287194457
0.13641538 0.25118858 1.1107501 4285549123
0.13855161 0.25231928 1.1157501 4285352771
0.14054453 0.25316733 1.1195 4288584087
0.082120359 0.25827619 1.1352501 4287139472
0.082010835 0.25315729 1.1127501 4289442740
0.083510123 0.25310043 1.1125001 4289904061
0.083384618 0.24820904 1.0910001 4290034877
0.084872998 0.24820904 1.0910001 4290161583
0.086381182 0.24826592 1.0912501 4289105286
0.087869905 0.24826592 1.0912501 4289630847
0.089379109 0.24832278 1.0915 4289630847
0.090868175 0.24832278 1.0915 4289499000
0.092357248 0.24832278 1.0915 4289630586
0.093846321 0.24832278 1.0915 4289499000
0.095313556 0.24826592 1.0912501 4289696379
0.096757933 0.24815217 1.0907501 4289696379
0.098178416 0.24798153 1.09 4289499000
0.099596873 0.24781092 1.0892501 4289696379
0.10101327 0.24764027 1.0885 4289827195
0.10242762 0.24746965 1.0877501 4290024062
0.10381605 0.24724214 1.08675 4290024062
0.10520175 0.24701464 1.0857501 4290023808
0.10653558 0.24667338 1.0842501 4289827197
0.10789024 0.24638899 1.0830001 4290024576
0.10926672 0.24616148 1.082 4289892990
0.11066608 0.24599086 1.0812501 4289761404
0.11208931 0.24587712 1.0807501 4289696381
0.11356371 0.24587712 1.0807501 4289696894
0.11506473 0.24593398 1.0810001 4289696894
0.11659337 0.24604774 1.0815001 4289762687
0.11817798 0.24627525 1.0825001 4289630588
0.11993109 0.24684399 1.085 4289631101
0.1216351 0.247299 1.087 4289696894
0.12325961 0.24758339 1.08825 4289434238
0.12485889 0.24781092 1.0892501 4289565572
0.12646087 0.2480384 1.09025 4289760898
0.12803626 0.24820904 1.0910001 4289300347
0.12964335 0.24843654 1.092 4288116847
0.13149336 0.24911906 1.095 4287063385
0.13462678 0.25219038 1.1085 4285813056
0.13675311 0.25332791 1.1135 4285483839
0.13879995 0.25429481 1.11775 4284958790
0.082029261 0.25473097 1.113 4289705912
0.082965896 0.25295722 1.10525 4290034877
0.083403721 0.24975307 1.0912501 4290230203
0.084892444 0.24975307 1.0912501 4288646019
0.086400971 0.24981029 1.0915 4288116829
0.087910168 0.2498675 1.09175 4288708704
0.089399584 0.2498675 1.09175 4289301101
0.090909801 0.24992472 1.092 4289366894
0.092399552 0.24992472 1.092 4289498998
0.093867809 0.2498675 1.09175 4289367416
0.095313556 0.24975307 1.0912501 4289762172
0.096735746 0.24958141 1.0905 4289696379
0.098155901 0.24940977 1.0897501 4289367412
0.099551149 0.24918088 1.08875 4289695607
0.10094367 0.24895203 1.0877501 4289892472
0.10233346 0.24872315 1.08675 4289892476
0.10369663 0.24843706 1.0855 4289958269
0.10505641 0.248151 1.0842501 4289958015
0.10641276 0.2478649 1.0830001 4289629050
0.10776571 0.24757881 1.08175 4290023808
0.10916574 0.24740717 1.0810001 4290089601
0.11056373 0.24723551 1.08025 4289958529
0.11198559 0.24712108 1.0797501 4289630334
0.11345863 0.24712108 1.0797501 4289696640
0.11493167 0.24712108 1.0797501 4289828480
0.11645861 0.24723551 1.08025 4289499515
0.11804151 0.24746439 1.0812501 4289564793
0.11976529 0.24797933 1.0835 4289892990
0.12155118 0.24860872 1.0862501 4289696381
0.12320299 0.24895203 1.0877501 4289630082
0.12480156 0.24918088 1.08875 4289432966
0.12640287 0.24940977 1.0897501 4289170048
0.12800692 0.24963865 1.0907501 4287985259
0.129584 0.24981029 1.0915 4285944392
0.13128322 0.25021079 1.09325 4285746498
0.13456605 0.25358662 1.108 4285814603
0.13635395 0.25410157 1.11025 4285355337
0.13852057 0.25530314 1.1155001 4284829783
0.080528945 0.25630531 1.11325 4289706161
0.082047686 0.25630531 1.11325 4290165946
0.082815766 0.25400299 1.10325 4290230971
0.083461039 0.25141287 1.092 4290493118
0.08495079 0.25141287 1.092 4287000158
0.086440548 0.25141287 1.092 4286734651
0.087950431 0.25147045 1.0922501 4287391811
0.089460999 0.25152799 1.0925001 4288115030
0.090951428 0.25152799 1.0925001 4287983444
0.092441872 0.25152799 1.0925001 4288971120
0.093889304 0.25141287 1.092 4289037427
0.095313556 0.25124022 1.0912501 4289498750
0.096735746 0.25106752 1.0905 4289630334
0.098133385 0.2508373 1.0895001 4289367414
0.09952829 0.25060707 1.0885 4289629814
0.10089726 0.25031927 1.08725 4289958267
0.10226284 0.2500315 1.0860001 4289629818
0.10362499 0.2497437 1.0847501 4289760890
0.10495951 0.24939835 1.08325 4289958269
0.10628994 0.249053 1.08175 4290023549
0.1076661 0.24882279 1.0807501 4290089601
0.10906475 0.2486501 1.08 4289826943
0.11046138 0.24847744 1.0792501 4289827197
0.1119078 0.24841987 1.079 4289696381
0.11335354 0.2483623 1.07875 4289696892
0.11485183 0.24841987 1.079 4289565306
0.11637776 0.24853499 1.0795001 4289565306
0.11790504 0.2486501 1.08 4289827193
0.11957186 0.249053 1.08175 4290156158
0.12146725 0.24991637 1.0855 4289827197
0.12311803 0.25026172 1.087 4289630084
0.12474425 0.25054953 1.08825 4289498500
0.12634489 0.25077975 1.0892501 4287788395
0.12797758 0.25106752 1.0905 4286406227
0.12955433 0.25124022 1.0912501 4285023802
0.13122317 0.25158557 1.0927501 4284893501
0.13307831 0.25227627 1.0957501 4284829761
0.13604693 0.25503904 1.1077501 4285158728
0.13861369 0.25699601 1.11625 4284632907
0.080547027 0.2578803 1.1135 4290100155
0.082066104 0.2578803 1.1135 4290231741
0.082797006 0.25544858 1.103 4290099133
0.083518371 0.25307474 1.0927501 4290230973
0.085028589 0.25313264 1.0930001 4285553482
0.086519711 0.25313264 1.0930001 4284167441
0.088010818 0.25313264 1.0930001 4284563482
0.089522414 0.25319055 1.09325 4285680691
0.091013864 0.25319055 1.09325 4285878070
0.092484176 0.25313264 1.0930001 4287852126
0.093932301 0.25301686 1.0925001 4287786846
0.095357224 0.25284314 1.09175 4288444263
0.096757933 0.25261158 1.0907501 4289761150
0.098133385 0.25232208 1.0895001 4288446310
0.099505432 0.25203258 1.08825 4289366644
0.10087406 0.25174308 1.087 4289564541
0.10221575 0.25139567 1.0855 4289629818
0.10355335 0.2510483 1.0840001 4289760890
0.10488685 0.25070092 1.0825001 4289957756
0.10624082 0.25041142 1.0812501 4289826683
0.10761628 0.2501798 1.08025 4289892474
0.10898902 0.24994823 1.0792501 4290024576
0.1104102 0.24983241 1.07875 4289892990
0.11185594 0.24977452 1.0785 4289630588
0.11330101 0.24971662 1.0782501 4289696892
0.11477201 0.24971662 1.0782501 4289828478
0.11629689 0.24983241 1.07875 4289696892
0.11782317 0.24994823 1.0792501 4290024572
0.11943369 0.2502377 1.0805 4289892986
0.12138333 0.25122198 1.0847501 4289695607
0.12311803 0.25174308 1.087 4289629818
0.1247156 0.25197467 1.0880001 4288380017
0.12634489 0.25226417 1.0892501 4286669914
0.12797758 0.25255364 1.0905 4285419332
0.129584 0.25278524 1.0915 4285221951
0.1312532 0.25313264 1.0930001 4284762685
0.13319975 0.25400111 1.09675 4284632896
0.13583201 0.25614336 1.1060001 4284896581
0.13740295 0.25625917 1.1065 4284369222
0.13906942 0.25654867 1.1077501 4288517021
0.14169107 0.25857511 1.1165 4290493121
0.080547027 0.25939777 1.1135 4290231741
0.082066104 0.25939777 1.1135 4290363075
0.082703173 0.25666052 1.10175 4290165698
0.08361391 0.25485513 1.0940001 4290230201
0.08510638 0.25485513 1.0940001 4284896583
0.086598866 0.25485513 1.0940001 4283972390
0.088091344 0.25485513 1.0940001 4283314456
0.089583829 0.25485513 1.0940001 4283511835
0.091076307 0.25485513 1.0940001 4283182870
0.092547633 0.25479686 1.09375 4284430372
0.093996778 0.2546804 1.09325 4285613631
0.095400907 0.25444746 1.0922501 4286140479
0.096780106 0.25415626 1.0910001 4288116577
0.098133385 0.25380683 1.0895001 4287525212
0.099505432 0.25351563 1.08825 4288510823
0.10085087 0.25316617 1.08675 4289104001
0.10219221 0.25281674 1.08525 4289103738
0.10350557 0.25240907 1.0835 4289366646
0.10483839 0.25205964 1.082 4289760890
0.10619169 0.25176844 1.0807501 4289826681
0.10756647 0.25153548 1.0797501 4289499000
0.10896376 0.25136074 1.079 4289827197
0.11038461 0.25124428 1.0785 4289762174
0.11180409 0.25112781 1.0780001 4289565054
0.11324847 0.25106958 1.0777501 4289433722
0.11474539 0.25112781 1.0780001 4289697662
0.116243 0.25118604 1.0782501 4289631869
0.11776858 0.25130251 1.07875 4289631099
0.11929552 0.25141901 1.0792501 4289565306
0.1210756 0.25205964 1.082 4289893760
0.12308972 0.25316617 1.08675 4289169267
0.1247156 0.25345737 1.0880001 4287589731
0.12634489 0.2537486 1.0892501 4285945676
0.12797758 0.25403976 1.0905 4285221953
0.12961368 0.25433096 1.09175 4285156673
0.13134326 0.25479686 1.09375 4284961347
0.13319975 0.25549576 1.09675 4284634179
0.13500302 0.25607815 1.0992501 4284633927
0.13706148 0.25712648 1.1037501 4284369485
0.13872418 0.25741765 1.105 4288123285
0.14023165 0.25741765 1.105 4290888131
0.080565117 0.26097387 1.1137501 4290297536
0.082084537 0.26097387 1.1137501 4290034877
0.082628109 0.25792769 1.1007501 4290232002
0.083728552 0.25669754 1.0955001 4290363075
0.085184172 0.25658035 1.095 4284700235
0.086678021 0.25658035 1.095 4283578661
0.088171862 0.25658035 1.095 4283052578
0.089665711 0.25658035 1.095 4283315754
0.091138743 0.25652176 1.09475 4283447340
0.092611097 0.2564632 1.0945001 4283050786
0.09406127 0.25634605 1.0940001 4283378213
0.095488243 0.25617027 1.09325 4282720272
0.096868813 0.25587738 1.092 4284363046
0.098200932 0.25546733 1.09025 4286271293
0.09952829 0.25505725 1.0885 4286799692
0.10085087 0.2546472 1.08675 4287326549
0.10216867 0.25423715 1.085 4288380017
0.1034817 0.2538271 1.08325 4288249196
0.10481417 0.25347561 1.08175 4288774507
0.10619169 0.2532413 1.0807501 4289630847
0.10756647 0.25300696 1.0797501 4289564795
0.10896376 0.25283122 1.079 4289564795
0.11035903 0.25265548 1.0782501 4289696640
0.11180409 0.25259691 1.0780001 4289566078
0.11324847 0.25253832 1.0777501 4289566076
0.11471879 0.25253832 1.0777501 4289500283
0.11618909 0.25253832 1.0777501 4289434490
0.11774129 0.25271407 1.0785 4289500283
0.11926788 0.25283122 1.079 4289302906
0.12090775 0.25318271 1.0805 4288382063
0.1230614 0.25458863 1.0865 4287788897
0.12474425 0.25499868 1.08825 4286273861
0.12637387 0.25529158 1.0895001 4285352253
0.12803626 0.25564307 1.0910001 4285025085
0.12970273 0.25599456 1.0925001 4284763198
0.13146335 0.25652176 1.09475 4284436030
0.13326049 0.25710759 1.0972501 4284436800
0.13500302 0.25757623 1.0992501 4284962892
0.13668893 0.25792769 1.1007501 4284107846
0.13844171 0.25839633 1.1027501 4288190612
0.14004129 0.25857204 1.1035 4290954694
0.14161088 0.25868922 1.1040001 4290757315
0.14314942 0.25874782 1.1042501 4291019717
0.14701387 0.26296556 1.1222501 4290887876
0.0805832 0.26255056 1.1140001 4290297536
0.082102962 0.26255056 1.1140001 4290231743
0.082590573 0.25930992 1.10025 4290494145
0.083824083 0.25848505 1.09675 4290624961
0.085281417 0.25836721 1.0962501 4284897360
0.086757183 0.25830829 1.0960001 4282921498
0.088232256 0.25824937 1.0957501 4283053600
0.089727134 0.25824937 1.0957501 4282921764
0.091201186 0.25819045 1.0955001 4282921764
0.092674553 0.2581315 1.09525 4283052328
0.094147243 0.25807258 1.095 4283183914
0.095575593 0.25789586 1.0942501 4283182883
0.09695752 0.25760123 1.0930001 4283511587
0.09829101 0.2571888 1.0912501 4282653963
0.099596873 0.25671744 1.0892501 4284757802
0.10092047 0.25630498 1.0875001 4286076732
0.10219221 0.25577468 1.08525 4286736205
0.1034817 0.25530332 1.08325 4286603336
0.10483839 0.25500873 1.082 4287327059
0.10619169 0.25471413 1.0807501 4288248163
0.10759138 0.25453734 1.08 4289038451
0.10898902 0.25436062 1.0792501 4289301882
0.11038461 0.25418383 1.0785 4289301882
0.11180409 0.25406599 1.0780001 4289302134
0.11324847 0.25400707 1.0777501 4289368697
0.11471879 0.25400707 1.0777501 4289368697
0.11618909 0.25400707 1.0777501 4289499513
0.117714 0.25412491 1.0782501 4289499513
0.11924025 0.25424275 1.07875 4289105527
0.12079586 0.25441954 1.0795001 4287460448
0.12297646 0.25589254 1.0857501 4286602824
0.12480156 0.25659958 1.08875 4285484857
0.12643187 0.25689417 1.09 4284762937
0.12809494 0.25724772 1.0915 4284434231
0.12982143 0.25771907 1.0935 4284830786
0.13161346 0.25830829 1.0960001 4284371520
0.13335156 0.25877964 1.098 4284437061
0.13500302 0.25907424 1.0992501 4284896331
0.13668893 0.25942779 1.1007501 4284369735
0.13831617 0.25966343 1.10175 4288453533
0.13994612 0.25989914 1.1027501 4290627014
0.14154674 0.2600759 1.1035 4290757063
0.0805832 0.26406872 1.1140001 4290624961
0.082102962 0.26406872 1.1140001 4290887876
0.083622724 0.26406872 1.1140001 4290821311
0.083900511 0.26021671 1.0977501 4289835186
0.085359216 0.26009822 1.0972501 4284634440
0.086816549 0.25997967 1.09675 4282920983
0.088292643 0.25992042 1.0965 4283053854
0.089768074 0.25986114 1.0962501 4282922528
0.091242805 0.25980189 1.0960001 4282922528
0.092716873 0.25974265 1.0957501 4282659104
0.09419024 0.25968337 1.0955001 4282922280
0.095641091 0.25956485 1.095 4283052069
0.097090587 0.25944632 1.0945001 4283248676
0.098493665 0.25920928 1.0935 4283051295
0.09977974 0.25867593 1.0912501 4283314460
0.10103646 0.25808331 1.08875 4283247895
0.10228638 0.25749069 1.0862501 4283772692
0.10350557 0.25683883 1.0835 4284497187
0.10486262 0.2565425 1.08225 4285022761
0.10624082 0.25630549 1.0812501 4285548342
0.10764118 0.25612769 1.0805 4286798936
0.10903951 0.25594991 1.0797501 4287589458
0.11043578 0.25577211 1.079 4288051036
0.11185594 0.25565359 1.0785 4288380517
0.11327474 0.25553507 1.0780001 4288708462
0.11471879 0.25547582 1.0777501 4289169783
0.11621605 0.25553507 1.0780001 4289170296
0.117714 0.25559434 1.0782501 4289038710
0.11924025 0.25571284 1.07875 4287854436
0.12079586 0.25589064 1.0795001 4286208580
0.12258002 0.2565425 1.08225 4285286966
0.1249162 0.25832036 1.0897501 4284565558
0.12657687 0.25867593 1.0912501 4284830013
0.1282123 0.25897226 1.0925001 4284369976
0.12996985 0.2595056 1.09475 4284502075
0.13173354 0.26003891 1.097 4284436028
0.13341229 0.26039448 1.0985 4284436030
0.13506442 0.26069081 1.09975 4284830023
0.13668893 0.26092786 1.1007501 4284369222
0.13828477 0.26110563 1.1015 4288189593
0.13988267 0.26128343 1.1022501 4291021518
0.14148261 0.2614612 1.103 4290559938
0.14305218 0.26157972 1.1035 4291019719
0.080601282 0.26564646 1.1142501 4290756290
0.082121387 0.26564646 1.1142501 4290756288
0.083622724 0.26558685 1.1140001 4291150276
0.083957836 0.26189151 1.0985 4288453531
0.085398108 0.26171273 1.0977501 4284239423
0.086875923 0.26165313 1.0975001 4283578409
0.088332906 0.26153392 1.097 4282922014
0.089809015 0.26147431 1.09675 4283053854
0.091284432 0.26141471 1.0965 4282922268
0.092759177 0.2613551 1.0962501 4282659610
0.09423323 0.2612955 1.0960001 4283053602
0.095706604 0.26123592 1.0957501 4283052580
0.097179294 0.26117632 1.0955001 4283184168
0.098628774 0.26105708 1.095 4282855201
0.10000832 0.26075909 1.09375 4282855969
0.10131487 0.26028228 1.09175 4282921246
0.10245117 0.25938824 1.0880001 4282526227
0.10357723 0.25849423 1.0842501 4282657559
0.10491107 0.2581366 1.0827501 4283904807
0.10628994 0.25789818 1.08175 4283903776
0.107691 0.2577194 1.0810001 4284035891
0.10908999 0.25754058 1.08025 4284626745
0.11051255 0.25742137 1.0797501 4285944892
0.1119078 0.25724256 1.079 4287065944
0.11332727 0.25712335 1.0785 4287525212
0.11477201 0.25706375 1.0782501 4288116065
0.116243 0.25706375 1.0782501 4288117097
0.11774129 0.25712335 1.0785 4287656546
0.11929552 0.25730217 1.0792501 4286143305
0.12082383 0.25742137 1.0797501 4285022759
0.1225234 0.25789818 1.08175 4284499763
0.12503083 0.26004386 1.0907501 4284172597
0.12675086 0.2605207 1.0927501 4284567355
0.12835899 0.26075909 1.09375 4284567101
0.13011825 0.2612955 1.0960001 4284567616
0.1318236 0.26171273 1.0977501 4284436030
0.13347302 0.26201075 1.0990001 4284370235
0.13509512 0.26224914 1.1 4284962122
0.13671997 0.26248756 1.1010001 4284369733
0.13831617 0.26266634 1.10175 4288190361
0.13991439 0.26284516 1.1025001 4290889673
0.14148261 0.26296437 1.103 4290560708
0.14305218 0.26308355 1.1035 4291019717
0.14834633 0.26719612 1.1207501 4290888899
0.081469327 0.27004221 1.12625 4290954696
0.082139812 0.26722491 1.1145 4290954694
0.083641492 0.26716498 1.1142501 4290230201
0.083957836 0.26338854 1.0985 4287664523
0.085417554 0.26326868 1.098 4283583290
0.086895712 0.26320875 1.0977501 4283315750
0.088353045 0.26308885 1.0972501 4283184418
0.089829482 0.26302889 1.097 4283053600
0.091305241 0.26296896 1.09675 4283053600
0.092780329 0.26290902 1.0965 4282791196
0.094276212 0.26290902 1.0965 4282725403
0.095750272 0.26284909 1.0962501 4282527770
0.097223647 0.26278913 1.0960001 4282724383
0.098696336 0.2627292 1.0957501 4282461727
0.10016835 0.26266927 1.0955001 4282593311
0.10161646 0.26254937 1.095 4282789406
0.10287491 0.26194996 1.0925001 4282723867
0.1037444 0.26039144 1.0860001 4282789660
0.10498373 0.259792 1.0835 4282920992
0.10636364 0.25955224 1.0825001 4283182881
0.10776571 0.25937238 1.08175 4282854688
0.10916574 0.25919259 1.0810001 4282197260
0.11058931 0.25907266 1.0805 4283443977
0.11198559 0.25889286 1.0797501 4284629032
0.11340609 0.25877297 1.0792501 4285880133
0.11485183 0.25871301 1.079 4286538063
0.11629689 0.25865307 1.07875 4286080332
0.11779586 0.25871301 1.079 4285685574
0.11935079 0.25889286 1.0797501 4284828982
0.12087978 0.25901273 1.08025 4284696111
0.12243845 0.25919259 1.0810001 4284434483
0.12526008 0.26200989 1.0927501 4284172343
0.12689584 0.26230961 1.0940001 4284632894
0.12853502 0.2626093 1.09525 4284567614
0.13023697 0.26302889 1.097 4284830788
0.13194369 0.26344851 1.09875 4284436802
0.1335641 0.26368827 1.09975 4284502595
0.13518724 0.26392806 1.1007501 4284700233
0.13678207 0.26410788 1.1015 4284305223
0.13837895 0.26428771 1.1022501 4288190616
0.13994612 0.2644076 1.1027501 4290363329
0.14154674 0.2645874 1.1035 4290626501
0.14311701 0.26470733 1.1040001 4290757317
0.14475413 0.26494706 1.105 4290690497
0.14821397 0.2684837 1.11975 4290690500
0.08148741 0.27163732 1.1265 4291019719
0.082213514 0.26898488 1.1155001 4290559684
0.08367902 0.26880401 1.11475 4287860626
0.084034264 0.26512671 1.0995001 4287071613
0.085437 0.26482528 1.09825 4283583286
0.086895712 0.26470473 1.0977501 4283316520
0.088353045 0.26458418 1.0972501 4282789406
0.089829482 0.26452386 1.097 4282790690
0.091305241 0.2644636 1.09675 4282724897
0.092801481 0.2644636 1.09675 4282594076
0.094297707 0.2644636 1.09675 4282462231
0.09579394 0.2644636 1.09675 4282528024
0.097290173 0.2644636 1.09675 4282659358
0.098786399 0.2644636 1.09675 4282593313
0.10025978 0.26440331 1.0965 4282921762
0.10170927 0.26428276 1.0960001 4282657307
0.10315741 0.26416218 1.0955001 4282855199
0.10376828 0.26193169 1.0862501 4282855453
0.10500795 0.26132885 1.08375 4282856223
0.10643733 0.2612083 1.08325 4282855453
0.10784043 0.26102746 1.0825001 4282920733
0.10926672 0.26090688 1.082 4282986524
0.11066608 0.26072603 1.0812501 4282920211
0.11208931 0.26060548 1.0807501 4283313938
0.11351116 0.26048487 1.08025 4283510805
0.11493167 0.26036432 1.0797501 4284367661
0.1164047 0.26036432 1.0797501 4284698175
0.11787775 0.26036432 1.0797501 4283974452
0.11940605 0.26048487 1.08025 4284565040
0.12093574 0.26060548 1.0807501 4284236593
0.1225234 0.26084659 1.08175 4284500026
0.1253747 0.26374018 1.09375 4284501312
0.12706985 0.26416218 1.0955001 4284369724
0.12868172 0.26440331 1.0965 4284304442
0.13038537 0.26482528 1.09825 4284370237
0.13206378 0.265187 1.09975 4284305216
0.13368556 0.26542816 1.1007501 4284304964
0.13531005 0.26566926 1.10175 4284634188
0.1368752 0.26578984 1.1022501 4284239430
0.13847309 0.26597068 1.103 4288125074
0.14004129 0.26609126 1.1035 4290297795
0.14164294 0.2662721 1.1042501 4290495174
0.14331146 0.26657352 1.1055001 4290692555
0.14508164 0.26705578 1.1075001 4290493893
0.14808162 0.26976857 1.1187501 4289373867
0.082710996 0.2721419 1.1222501 4288649379
0.083754092 0.27056569 1.1157501 4287136392
0.083957836 0.2663826 1.0985 4287333769
0.085417554 0.26626137 1.098 4284238919
0.086895712 0.26620072 1.0977501 4283512618
0.088353045 0.26607949 1.0972501 4282920479
0.089829482 0.26601884 1.097 4282527518
0.09132605 0.26601884 1.097 4282527518
0.092822634 0.26601884 1.097 4282593824
0.094340704 0.26607949 1.0972501 4282594078
0.095837623 0.26607949 1.0972501 4282593824
0.097334534 0.26607949 1.0972501 4282462492
0.098831445 0.26607949 1.0972501 4282133527
0.1003055 0.26601884 1.097 4282725151
0.10175567 0.2658976 1.0965 4282658844
0.10322803 0.26583698 1.0962501 4282789658
0.10462803 0.26559448 1.09525 4282723865
0.10505641 0.26292703 1.0842501 4282855451
0.10648645 0.26280576 1.08375 4282854940
0.10791515 0.26268452 1.08325 4282657561
0.10934246 0.26256329 1.0827501 4282855453
0.11074284 0.2623814 1.082 4282723867
0.11216709 0.26226017 1.0815001 4282919963
0.11361624 0.26219955 1.0812501 4283116579
0.11503812 0.26207832 1.0807501 4282391582
0.11651252 0.26207832 1.0807501 4282851606
0.11798692 0.26207832 1.0807501 4283772708
0.11951659 0.26219955 1.0812501 4284235310
0.12104763 0.26232079 1.08175 4284434231
0.12274992 0.26280576 1.08375 4284501310
0.12554665 0.26559448 1.09525 4284369724
0.12721482 0.26595822 1.09675 4284632896
0.12885776 0.26626137 1.098 4284436032
0.13053377 0.26662511 1.0995001 4284502341
0.13218386 0.26692823 1.1007501 4284370757
0.133807 0.2671707 1.10175 4284633677
0.13540216 0.26735261 1.1025001 4284371016
0.13699937 0.26753446 1.10325 4284042823
0.13859864 0.26771635 1.1040001 4288586146
0.14019993 0.2678982 1.10475 4290626762
0.14183536 0.2681407 1.1057501 4290495948
0.14363554 0.26868632 1.108 4290495946
0.14642437 0.27105066 1.11775 4289771703
0.14801541 0.2711719 1.11825 4286873982
0.083866686 0.272452 1.1172501 4286478973
0.084282659 0.26891604 1.1027501 4287926419
0.085398108 0.26769674 1.0977501 4284173126
0.086875923 0.26763576 1.0975001 4282985502
0.088353045 0.26757482 1.0972501 4283118112
0.089829482 0.26751381 1.097 4282987039
0.09132605 0.26751381 1.097 4282987039
0.092843793 0.26757482 1.0972501 4282593824
0.094362199 0.26763576 1.0975001 4282593824
0.095881291 0.26769674 1.0977501 4282528031
0.09740106 0.26775768 1.098 4282528031
0.098898992 0.26775768 1.098 4282198807
0.10037408 0.26769674 1.0977501 4282593565
0.10182527 0.26757482 1.0972501 4282396699
0.10327511 0.26745287 1.09675 4282724637
0.10472357 0.26733094 1.0962501 4282789660
0.10510486 0.26452655 1.0847501 4282855453
0.10653558 0.26440462 1.0842501 4282854940
0.10796496 0.26428267 1.08375 4283052319
0.10939296 0.26416075 1.08325 4282657559
0.11081961 0.26403883 1.0827501 4282525973
0.11227081 0.26397789 1.0825001 4282854686
0.11369505 0.26385593 1.082 4282854688
0.11517116 0.26385593 1.082 4283117090
0.11662032 0.26379499 1.08175 4282460695
0.11812338 0.26385593 1.082 4283184418
0.11965477 0.26397789 1.0825001 4284105266
0.12115953 0.26403883 1.0827501 4284368438
0.12283488 0.2644656 1.0845001 4284567101
0.12566128 0.26733094 1.0962501 4284172343
0.12735981 0.26775768 1.098 4284567103
0.12900445 0.26806253 1.0992501 4284436032
0.1306525 0.26836735 1.1005001 4284435265
0.13227393 0.26861119 1.1015 4284237888
0.13389809 0.26885507 1.1025001 4284501573
0.13549426 0.26903796 1.10325 4284108866
0.13709252 0.26922086 1.1040001 4283715653
0.1386928 0.26940376 1.10475 4288716960
0.14032684 0.2696476 1.1057501 4290495944
0.14199568 0.26995242 1.107 4290167492
0.14399204 0.2708669 1.1107501 4289903037
0.14635888 0.272452 1.1172501 4288651939
0.14791615 0.27251294 1.1175001 4286214769
0.083919622 0.26925406 1.098 4289638832
0.085398108 0.26919276 1.0977501 4284634190
0.086875923 0.26913145 1.0975001 4282261518
0.088353045 0.26907015 1.0972501 4283249696
0.089829482 0.26900882 1.097 4282987039
0.091346875 0.26907015 1.0972501 4282855453
0.092864946 0.26913145 1.0975001 4282528031
0.094383687 0.26919276 1.0977501 4282396445
0.095903128 0.26925406 1.098 4282462238
0.097423233 0.26931536 1.09825 4282593311
0.098921508 0.26931536 1.09825 4282461725
0.10039694 0.26925406 1.098 4282593565
0.10184848 0.26913145 1.0975001 4282330139
0.10332219 0.26907015 1.0972501 4282592797
0.10467581 0.2687023 1.0957501 4282789406
0.10512908 0.26606616 1.085 4282920481
0.10658471 0.26600486 1.0847501 4282854940
0.10801477 0.26588225 1.0842501 4282854938
0.1094687 0.26582095 1.0840001 4282526227
0.11089636 0.26569831 1.0835 4282789147
0.11234859 0.26563701 1.08325 4282855199
0.11380013 0.26557571 1.0830001 4282657307
0.11527761 0.26557571 1.0830001 4282657307
0.11675508 0.26557571 1.0830001 4282920481
0.11825985 0.26563701 1.08325 4282986274
0.11982057 0.26582095 1.0840001 4284106036
0.12138333 0.26600486 1.0847501 4283974964
0.12314634 0.26661789 1.08725 4284435769
0.12586188 0.26925406 1.098 4284369976
0.12750481 0.26956058 1.0992501 4284633407
0.12912181 0.26980579 1.10025 4284238138
0.13074154 0.27005103 1.1012501 4284501058
0.13236399 0.27029625 1.1022501 4284501573
0.13395882 0.27048016 1.103 4284304194
0.13555568 0.2706641 1.1037501 4284239682
0.13712355 0.2707867 1.1042501 4283780676
0.13875556 0.27103189 1.10525 4288060821
0.14042202 0.27133843 1.1065 4290430405
0.14209189 0.27164498 1.1077501 4290298049
0.14405686 0.27250326 1.11125 4288716703
0.084148914 0.27149016 1.1010001 4290955975
0.085378662 0.27062711 1.0975001 4284570461
0.086856134 0.27056545 1.0972501 4282525973
0.088353045 0.27056545 1.0972501 4283053084
0.089849964 0.27056545 1.0972501 4282723867
0.091346875 0.27056545 1.0972501 4282592281
0.092886098 0.27068874 1.0977501 4282330139
0.094405182 0.27075037 1.098 4282198553
0.095946796 0.27087367 1.0985 4282526234
0.097445413 0.27087367 1.0985 4282526236
0.098944023 0.27087367 1.0985 4282330141
0.10041979 0.27081203 1.09825 4282198553
0.10189487 0.27075037 1.098 4282461465
0.10334573 0.27062711 1.0975001 4282395418
0.1037444 0.26779139 1.0860001 4282460441
0.10520175 0.26772973 1.0857501 4282592027
0.10663383 0.26760641 1.08525 4282723865
0.10806458 0.26748314 1.0847501 4282526227
0.10951919 0.26742148 1.0845001 4282591766
0.11097313 0.26735985 1.0842501 4282855199
0.11242638 0.26729822 1.0840001 4282592799
0.11390521 0.26729822 1.0840001 4282724385
0.11538406 0.26729822 1.0840001 4282788893
0.11688984 0.26735985 1.0842501 4283446055
0.11842361 0.26748314 1.0847501 4283446055
0.11998636 0.26766807 1.0855 4283710247
0.12152321 0.26779139 1.0860001 4284172595
0.1232313 0.26828453 1.0880001 4284370489
0.12594785 0.27093533 1.09875 4284238136
0.12759179 0.27124354 1.1 4284435517
0.12920983 0.27149016 1.1010001 4284107067
0.13083057 0.27173671 1.102 4284369985
0.13242403 0.27192166 1.1027501 4284370755
0.13398917 0.27204496 1.10325 4284502341
0.13555568 0.27216828 1.1037501 4284831819
0.13715459 0.2723532 1.1045001 4283648831
0.13875556 0.27253813 1.10525 4288061085
0.14042202 0.27284634 1.1065 4290890954
0.14212395 0.27321625 1.108 4289442738
0.14441335 0.27469575 1.1140001 4287729291
0.083919622 0.27224672 1.098 4290692290
0.085398108 0.27218473 1.0977501 4285950822
0.086875923 0.27212277 1.0975001 4283710247
0.088353045 0.27206078 1.0972501 4283447075
0.089849964 0.27206078 1.0972501 4282789660
0.091367684 0.27212277 1.0975001 4282789660
0.092886098 0.27218473 1.0977501 4282263832
0.094426677 0.27230871 1.09825 4282592027
0.095946796 0.2723707 1.0985 4282723613
0.097467586 0.27243268 1.09875 4282790178
0.098966539 0.27243268 1.09875 4282461727
0.10044265 0.2723707 1.0985 4282527518
0.10189487 0.27224672 1.098 4282593565
0.10334573 0.27212277 1.0975001 4282593051
0.10381605 0.26945731 1.08675 4282658590
0.10525019 0.26933333 1.0862501 4282592027
0.10668297 0.26920938 1.0857501 4282789408
0.10811438 0.26908538 1.08525 4282592797
0.10956968 0.26902339 1.085 4282724897
0.11102431 0.26896143 1.0847501 4282329625
0.11250416 0.26896143 1.0847501 4282593315
0.11401028 0.26902339 1.085 4282329625
0.11549049 0.26902339 1.085 4282854686
0.11702459 0.26914737 1.0855 4282985241
0.11856008 0.26927137 1.0860001 4283248413
0.12015217 0.2695193 1.087 4284039212
0.12169106 0.26964328 1.0875001 4284369462
0.12328792 0.2698912 1.0885 4284436032
0.12606248 0.27268064 1.09975 4284304446
0.1276788 0.2729286 1.1007501 4284435778
0.12923917 0.27305254 1.1012501 4283844924
0.13086025 0.27330053 1.1022501 4284305475
0.13245405 0.27348647 1.103 4284436550
0.13401954 0.27361044 1.1035 4284633927
0.13555568 0.27367243 1.1037501 4284700233
0.13712355 0.27379641 1.1042501 4283583038
0.1386928 0.27392036 1.10475 4287863193
0.14026338 0.27404433 1.10525 4290232256
0.14202777 0.27454025 1.1072501 4287863957
0.083919622 0.27374309 1.098 4291020485
0.085398108 0.27368075 1.0977501 4285293404
0.086875923 0.27361843 1.0975001 4282919961
0.088373169 0.27361843 1.0975001 4283118364
0.089870431 0.27361843 1.0975001 4282855453
0.091388494 0.27368075 1.0977501 4282855453
0.09290725 0.27374309 1.098 4282789406
0.094426677 0.27380541 1.09825 4282723613
0.095968626 0.27393004 1.09875 4282461465
0.097467586 0.27393004 1.09875 4282461465
0.098966539 0.27393004 1.09875 4282461725
0.10044265 0.27386773 1.0985 4282461211
0.10191807 0.27380541 1.09825 4282461465
0.10242762 0.27118766 1.0877501 4282329879
0.10386381 0.27106297 1.08725 4282724383
0.10529864 0.27093834 1.08675 4282527518
0.1067321 0.27081367 1.0862501 4282263832
0.10816421 0.27068904 1.0857501 4282395672
0.10962017 0.27062669 1.0855 4282461465
0.11110106 0.27062669 1.0855 4282461211
0.11258194 0.27062669 1.0855 4282592797
0.1140891 0.27068904 1.0857501 4282592797
0.11559694 0.27075136 1.0860001 4282723613
0.1171324 0.27087602 1.0865 4283051295
0.11866924 0.27100065 1.087 4283380260
0.1202627 0.27124998 1.0880001 4283907374
0.12180295 0.27137461 1.0885 4284302899
0.12337288 0.27156162 1.0892501 4284238136
0.12611979 0.27430403 1.10025 4283844411
0.12770779 0.27449101 1.1010001 4284304962
0.12929784 0.27467799 1.10175 4284173378
0.13088994 0.274865 1.1025001 4284239171
0.13248406 0.27505195 1.10325 4284041792
0.13401954 0.27511427 1.1035 4283779133
0.13552497 0.27511427 1.1035 4284304962
0.13706148 0.27517664 1.1037501 4283779133
0.13863003 0.27530128 1.1042501 4288585374
0.14013648 0.27530128 1.1042501 4288389537
0.14189948 0.2757999 1.10625 4285362287
0.082459211 0.27536476 1.0985 4290823880
0.083938725 0.27530208 1.09825 4291414473
0.085417554 0.27523941 1.098 4286149224
0.086895712 0.27517676 1.0977501 4283051799
0.088373169 0.27511409 1.0975001 4283249948
0.089870431 0.27511409 1.0975001 4282987039
0.091388494 0.27517676 1.0977501 4282789660
0.09290725 0.27523941 1.098 4282659104
0.094426677 0.27530208 1.09825 4282264600
0.095946796 0.27536476 1.0985 4282461979
0.097445413 0.27536476 1.0985 4282001428
0.098944023 0.27536476 1.0985 4282198807
0.10041979 0.27530208 1.09825 4282725151
0.10182527 0.27505141 1.0972501 4282199066
0.1024747 0.27279535 1.08825 4282264859
0.10391158 0.27267003 1.0877501 4282396445
0.10534708 0.27254468 1.08725 4282396445
0.10678122 0.27241933 1.08675 4282329879
0.10821401 0.27229401 1.0862501 4282461465
0.10967067 0.27223134 1.0860001 4282724383
0.11115224 0.27223134 1.0860001 4282592797
0.11265973 0.27229401 1.0862501 4282592797
0.11414164 0.27229401 1.0862501 4282461211
0.11567677 0.27241933 1.08675 4282461211
0.11721325 0.27254468 1.08725 4282788895
0.11875112 0.27267003 1.0877501 4283644715
0.1203456 0.27292067 1.08875 4283907887
0.12188689 0.27304605 1.0892501 4284303669
0.12345782 0.27323404 1.09 4284041524
0.12609114 0.27574077 1.1 4284173626
0.12773679 0.27605411 1.1012501 4284173628
0.12932718 0.27624211 1.102 4284239171
0.13091962 0.27643013 1.1027501 4283844674
0.13248406 0.27655545 1.10325 4284173891
0.13401954 0.27661812 1.1035 4284239171
0.13552497 0.27661812 1.1035 4284304192
0.13699937 0.27655545 1.10325 4285029716
0.13850448 0.27655545 1.10325 4287664268
0.13994612 0.27643013 1.1027501 4285822070
0.14161088 0.27674347 1.1040001 4283848278
0.082477972 0.27692479 1.09875 4291152071
0.083957836 0.27686179 1.0985 4291283140
0.085437 0.27679878 1.09825 4286213472
0.086895712 0.27667278 1.0977501 4283776040
0.088373169 0.27660978 1.0975001 4283446559
0.089870431 0.27660978 1.0975001 4282526486
0.091367684 0.27660978 1.0975001 4282461977
0.092886098 0.27667278 1.0977501 4282461977
0.094405182 0.27673578 1.098 4282330393
0.095924959 0.27679878 1.09825 4282132760
0.097423233 0.27679878 1.09825 4282264346
0.098898992 0.27673578 1.098 4282264600
0.10037408 0.27667278 1.0977501 4282330393
0.10115246 0.27471948 1.09 4282067482
0.10254534 0.27446747 1.0890001 4282067482
0.10398322 0.27434143 1.0885 4282199066
0.10539553 0.2741524 1.0877501 4282199320
0.10683035 0.27402636 1.08725 4282264600
0.10828872 0.27396336 1.087 4282133012
0.1097464 0.27390036 1.08675 4281935894
0.11120342 0.27383736 1.0865 4282592799
0.11268566 0.27383736 1.0865 4282461213
0.11419417 0.27390036 1.08675 4282592799
0.11572999 0.27402636 1.08725 4282592799
0.11726716 0.2741524 1.0877501 4282855201
0.11880571 0.27427843 1.08825 4283316772
0.12040088 0.27453047 1.0892501 4283645737
0.12194283 0.27465647 1.0897501 4283975983
0.12354278 0.27490851 1.0907501 4284173878
0.12609114 0.27723983 1.1 4284173878
0.12776579 0.2776179 1.1015 4284567868
0.12935653 0.27780694 1.1022501 4283975997
0.13094929 0.27799594 1.103 4284304194
0.13251409 0.27812198 1.1035 4283910719
0.13401954 0.27812198 1.1035 4283712825
0.13552497 0.27812198 1.1035 4284436550
0.13696833 0.27799594 1.103 4285885543
0.13797094 0.27698782 1.0990001 4286939262
0.13886741 0.27579066 1.0942501 4284110423
0.14023197 0.27553859 1.09325 4283914071
0.14178824 0.2756646 1.09375 4282598211
0.08101587 0.27854887 1.0992501 4291021770
0.082496747 0.27848551 1.0990001 4290757313
0.083976939 0.27842215 1.09875 4290362806
0.085456446 0.27835879 1.0985 4286872174
0.0869155 0.2782321 1.098 4283051297
0.088393301 0.27816874 1.0977501 4282459928
0.089849964 0.27804205 1.0972501 4282527770
0.091346875 0.27804205 1.0972501 4282593563
0.092864946 0.27810541 1.0975001 4282593563
0.094383687 0.27816874 1.0977501 4282198291
0.095903128 0.2782321 1.098 4282330393
0.097378887 0.27816874 1.0977501 4282461725
0.098853961 0.27810541 1.0975001 4282330139
0.10025978 0.277852 1.0965 4282396445
0.10124527 0.27645832 1.0910001 4282331424
0.1026395 0.27620491 1.09 4282199068
0.10405487 0.27601486 1.0892501 4282132760
0.1054682 0.27582482 1.0885 4282264598
0.10690405 0.2756981 1.0880001 4282461977
0.10833854 0.27557141 1.0875001 4282264598
0.1097969 0.27550805 1.08725 4282659358
0.11125459 0.27544469 1.087 4282461213
0.11271159 0.27538136 1.08675 4282461215
0.11422044 0.27544469 1.087 4282395422
0.11572999 0.27550805 1.08725 4282460443
0.11726716 0.27563477 1.0877501 4282855201
0.118833 0.27582482 1.0885 4282592533
0.12042851 0.27607822 1.0895001 4283711014
0.12199877 0.27626824 1.09025 4284107054
0.12368435 0.2767117 1.092 4284370741
0.12600517 0.27854887 1.0992501 4284173362
0.12776579 0.27911898 1.1015 4284173108
0.12938586 0.27937239 1.1025001 4283910458
0.13100865 0.27962577 1.1035 4284172860
0.13257414 0.27975249 1.1040001 4284304962
0.13408026 0.27975249 1.1040001 4283844411
0.13555568 0.27968916 1.1037501 4283910467
0.13647163 0.27848551 1.0990001 4284634710
0.13731182 0.27715513 1.09375 4284834399
0.13874051 0.27702844 1.09325 4284177239
0.14007162 0.2767117 1.092 4283585359
0.14156137 0.2767117 1.092 4284045910
0.1430839 0.27677506 1.0922501 4285626229
0.081034295 0.2801106 1.0995001 4290889673
0.082534276 0.2801106 1.0995001 4291021257
0.084015161 0.28004691 1.0992501 4291021506
0.085475899 0.27991951 1.09875 4285556576
0.086935282 0.27979213 1.09825 4282196758
0.088393301 0.27966475 1.0977501 4282792225
0.089849964 0.27953741 1.0972501 4282396951
0.09132605 0.27947369 1.097 4282593303
0.092822634 0.27947369 1.097 4282593303
0.094340704 0.27953741 1.0972501 4282593051
0.095859461 0.27960107 1.0975001 4282527772
0.097356707 0.27960107 1.0975001 4282330139
0.098808914 0.27947369 1.097 4282330141
0.10021406 0.27921894 1.0960001 4282068252
0.10133807 0.27819988 1.092 4282068252
0.10273366 0.27794513 1.0910001 4282396445
0.10415039 0.27775404 1.09025 4282198807
0.1055651 0.27756298 1.0895001 4282330393
0.10697774 0.27737188 1.08875 4282462492
0.10841325 0.27724454 1.08825 4282000912
0.1098474 0.27711716 1.0877501 4282461979
0.11128017 0.27698976 1.08725 4282593051
0.11273751 0.27692607 1.087 4282920992
0.11422044 0.27692607 1.087 4282657307
0.11572999 0.27698976 1.08725 4282920733
0.11726716 0.27711716 1.0877501 4283117594
0.118833 0.2773082 1.0885 4283513635
0.12045614 0.27762666 1.0897501 4283908393
0.12202675 0.27781773 1.0905 4283975470
0.12379762 0.27845463 1.0930001 4284107569
0.12594785 0.27991951 1.09875 4284173878
0.1310977 0.28132072 1.1042501 4283975481
0.13263418 0.28138441 1.1045001 4283713079
