# .PCD v0.7 - Point Cloud Data file format
VERSION 0.7
FIELDS x y z rgb
SIZE 4 4 4 4
TYPE F F F U
COUNT 1 1 1 1
WIDTH 1105
HEIGHT 1
VIEWPOINT 0 0 0 1 0 0 0
POINTS 1105
DATA ascii
-0.66262239 0.64750135 1.403875 4278784263
-0.66088426 0.65054494 1.40425 4278916107
-0.65818655 0.65167564 1.4046251 4278784523
-0.65467054 0.65390635 1.4032501 4278587914
-0.98063934 0.20693493 1.4067501 4280034579
-0.9783724 0.2087778 1.4062501 4279638797
-0.97702241 0.21252552 1.4056877 4279902486
-0.9768011 0.21652044 1.4067501 4280230166
-0.97401565 0.21824345 1.4055001 4279967764
-0.97574824 0.22055045 1.4080001 4280428315
-0.97018075 0.23165125 1.4055001 4280429085
-0.98203468 0.24897839 1.406 4280626462
-0.98314053 0.25309479 1.4075834 4280495392
-0.96926796 0.25348485 1.4097501 4280101151
-0.9858709 0.25855878 1.406 4280756510
-0.98348808 0.25732729 1.40625 4280756764
-0.96829396 0.25706875 1.4083334 4280822815
-0.96276772 0.2575781 1.4058751 4280692000
-0.98709428 0.26115093 1.4070625 4280690971
-0.96614397 0.26084542 1.4080001 4280756510
-0.96439427 0.26089174 1.4082501 4280428315
-0.94254589 0.27383876 1.40575 4279837463
-0.94794422 0.27649012 1.4095001 4279838233
-0.94188213 0.27708173 1.4076251 4280100118
-0.93854296 0.27666318 1.4055001 4280559127
-0.93958551 0.28013292 1.4085001 4280229907
-0.58539903 0.28750437 1.4070001 4282536521
-0.58498293 0.2892161 1.406 4282863687
-0.58434343 0.29177091 1.406 4282732357
-0.58606243 0.29742271 1.40675 4282403650
-0.58372146 0.29721522 1.4075834 4282601285
-0.58668852 0.30301431 1.4077917 4282337857
-0.58352971 0.30256295 1.4086667 4282403394
-0.58747452 0.30771947 1.407375 4281943358
-0.58314061 0.30700576 1.4085001 4282338370
-0.59057975 0.31308389 1.4056251 4282138680
-0.58741069 0.31248057 1.4072223 4282204989
-0.58392882 0.31267184 1.4080834 4282467650
-0.92695671 0.31688422 1.4097501 4280557852
-0.5915516 0.31741264 1.4064168 4281811260
-0.58884209 0.31703678 1.4075834 4281876285
-0.59520787 0.32405093 1.4075 4281481783
-0.59318143 0.32079673 1.40725 4281548345
-0.59594792 0.33213589 1.40925 4281677879
-0.59219027 0.34274927 1.4094585 4281547825
-0.58846641 0.34378091 1.4097501 4281810486
-0.59186977 0.34691131 1.4094585 4281547312
-0.58846641 0.34570211 1.4097501 4281744695
-0.61341417 0.37352619 1.4096251 4280427805
-0.61567295 0.37927198 1.406 4280428313
-0.61348855 0.37803635 1.4085358 4280362780
-0.89188278 0.38118804 1.406 4280034840
-0.8887983 0.38223886 1.4051667 4279836948
-0.6161108 0.38241807 1.4070001 4280362780
-0.61280459 0.38251114 1.4088572 4280493855
-0.88741499 0.38666111 1.4050001 4279968532
-0.61717904 0.38800207 1.4087085 4280428579
-0.61385518 0.38652778 1.4091667 4280494371
-0.62116152 0.39181069 1.4097501 4280296996
-0.62267959 0.39731488 1.4088334 4280822816
-0.62124038 0.40180659 1.4077501 4280692779
-0.62083101 0.40504345 1.409 4280889384
-0.62467545 0.41848463 1.409 4280299043
-0.86073345 0.42120096 1.4052501 4280098580
-0.62392861 0.42272368 1.4090501 4281481270
-0.62103057 0.42650223 1.408 4281943098
-0.61879903 0.42896897 1.4087501 4282075458
-0.83762133 0.4333629 1.4058751 4279573005
-0.83404243 0.43468374 1.4055001 4279704590
-0.61671346 0.43192637 1.4069166 4282404420
-0.84690678 0.43865171 1.4083999 4279769619
-0.84227389 0.43738949 1.4080418 4279901972
-0.83781433 0.43787321 1.4075418 4279769614
-0.83238435 0.437693 1.4059377 4279901199
-0.81540883 0.43984053 1.4097501 4279508496
-0.81270009 0.43912247 1.4095001 4279507983
-0.61419135 0.43706429 1.4070001 4282733132
-0.85201788 0.44367769 1.4066876 4279179800
-0.84993136 0.44121337 1.4080001 4280033052
-0.84218484 0.44232368 1.4095001 4279967509
-0.83753842 0.44223207 1.4087999 4279442700
-0.83238614 0.44203562 1.4075626 4279507982
-0.82873201 0.44354042 1.40625 4279704081
-0.66820711 0.44299656 1.4075716 4279769359
-0.65008354 0.44050828 1.40575 4280099352
-0.63691592 0.44231033 1.4084375 4280561445
-0.63214594 0.44166291 1.4063752 4281416757
-0.62825209 0.44353992 1.40625 4282073403
-0.61567295 0.44441876 1.406 4282536268
-0.61419129 0.44185901 1.4070001 4282668105
-0.83626771 0.44544604 1.40925 4279573776
-0.83221179 0.44725344 1.4088929 4279901713
-0.8275485 0.44872913 1.4075 4279573776
-0.81184971 0.44784972 1.4077501 4279311118
-0.80834681 0.4487271 1.4075001 4279179271
-0.77049267 0.44984686 1.4050001 4280491278
-0.66728574 0.44740483 1.4067858 4278849541
-0.63151562 0.44544607 1.40925 4281811001
-0.6265977 0.4472872 1.409 4282663998
-0.62197977 0.44864944 1.40725 4282403906
-0.61816686 0.44771057 1.4073126 4282601804
-0.83079469 0.45136771 1.4097501 4279508496
-0.82734966 0.45216683 1.4082502 4279573005
-0.6654653 0.45202896 1.4058334 4278980614
-0.66397166 0.45312482 1.4077501 4278717955
-0.81731838 0.45924476 1.4064168 4279837205
-0.81245154 0.45836949 1.4053 4279377420
-0.80882782 0.45942044 1.4050001 4279312652
-0.66507083 0.45559102 1.4050001 4278192896
-0.66285652 0.45786428 1.4070834 4278389761
-0.82030475 0.46048316 1.4082501 4279443473
-0.81559271 0.4619098 1.4067501 4279508496
-0.81220853 0.46162248 1.405875 4279574547
-0.80822885 0.46249834 1.405625 4279377427
-0.66224629 0.46244699 1.4076563 4278651910
-0.80688536 0.46570259 1.406625 4279506703
-0.79945534 0.46832594 1.4087501 4281017372
-0.66518915 0.4681201 1.4052501 4278784262
-0.66321021 0.4673816 1.4078335 4278718727
-0.79699647 0.47145677 1.4095001 4279703306
-0.79397142 0.47425368 1.40925 4279770383
-0.67082107 0.47473821 1.4050001 4278586631
-0.66671228 0.47344583 1.4068501 4278784262
-0.66402191 0.47124743 1.408875 4278784263
-0.79190832 0.47608975 1.409 4279179268
-0.78956562 0.47775552 1.4082501 4279573510
-0.68154502 0.47869533 1.405375 4279440388
-0.67721951 0.47798902 1.4055501 4278980353
-0.67229658 0.47797894 1.4060835 4278783495
-0.66823268 0.47658399 1.4076251 4278915592
-0.68254471 0.482443 1.40625 4279505924
-0.67743403 0.48205391 1.4067917 4278980097
-0.6722725 0.48248231 1.4080418 4278717960
-0.66900516 0.48001522 1.40925 4279047434
-0.68606466 0.48752427 1.4087501 4279899141
-0.68220049 0.48655048 1.4087085 4279309058
-0.67693537 0.48682585 1.4089501 4278914563
-0.67363197 0.4856475 1.408875 4278717960
-0.6586647 0.49363396 1.4097501 4278653194
-0.84588051 0.49922034 1.40925 4279966742
-0.69110698 0.4977043 1.4085833 4279898885
-0.65770304 0.4955551 1.4097501 4278587914
-0.84735185 0.50183338 1.4085 4279507733
-0.69555062 0.50279367 1.4085001 4279374080
-0.69326824 0.50166029 1.40855 4279636738
-0.85182023 0.50815994 1.4074167 4279114510
-0.69706762 0.50511622 1.4096251 4279307777
-0.8559984 0.51239038 1.4085001 4279048976
-0.85412735 0.51184541 1.4070001 4279246609
-0.67711562 0.51417363 1.4081252 4278980098
-0.70769453 0.51885545 1.4078126 4279307782
-0.68672073 0.51897109 1.4081252 4279833091
-0.68236351 0.51758152 1.4062144 4279505924
-0.67715693 0.51688653 1.4057188 4278980097
-0.67257386 0.51814586 1.4073334 4278717959
-0.70619941 0.5206998 1.4067501 4279439880
-0.7022379 0.52172601 1.4065001 4279769100
-0.69767267 0.5233373 1.406969 4279570695
-0.69312108 0.52342999 1.4082501 4279636738
-0.68788821 0.52319431 1.4065834 4279832836
-0.68385053 0.52219707 1.4051876 4279833604
-0.67705107 0.52304941 1.4053334 4278980353
-0.67218697 0.52214855 1.4067144 4278783495
-0.66744667 0.5223698 1.4086667 4278915593
-0.66320771 0.52368349 1.4091876 4278784521
-0.69191551 0.52596861 1.4058001 4279636738
-0.6871748 0.52648246 1.4051251 4279832836
-0.68237007 0.52762204 1.4051001 4279571460
-0.67708373 0.52672923 1.4070625 4278980097
-0.67183429 0.52717972 1.4076251 4278717960
-0.66723394 0.52738786 1.4075418 4278915849
-0.66272718 0.52762192 1.4081666 4278784521
-0.65897 0.52807474 1.4093751 4278653194
-0.68400252 0.53189075 1.4055001 4279833604
-0.67033261 0.53139728 1.4080001 4278784008
-0.6673032 0.53223854 1.4076874 4278915849
-0.66276652 0.53245127 1.40825 4278784521
-0.65843087 0.53186893 1.40925 4278653194
-0.71739733 0.53787577 1.4061251 4279899398
-0.71490657 0.53600919 1.4050001 4279899913
-0.68615514 0.53600919 1.4050001 4279701249
-0.66649091 0.53523493 1.4080001 4278784262
-0.66292334 0.5354566 1.4085833 4278784521
-0.72065687 0.54175335 1.4050001 4279899395
-0.71734786 0.54214942 1.4060279 4279899399
-0.71324354 0.54098845 1.4055001 4279570694
-0.69387525 0.55481672 1.409 4279439616
-0.67453343 0.55471832 1.4087501 4278914826
-0.69131392 0.55622208 1.4077001 4279899141
-0.68737531 0.55710226 1.4075001 4279767299
-0.67165661 0.55584788 1.4067501 4278586631
-0.66797465 0.55725688 1.4070835 4278849801
-0.65531462 0.56143737 1.4087501 4279048463
-0.65261179 0.56247151 1.4082501 4278982154
-0.64763725 0.56195742 1.4082501 4278916107
-0.64251739 0.56341046 1.4080834 4279047694
-0.65665329 0.56861198 1.4075 4278587914
-0.65272301 0.56757444 1.4073056 4278982411
-0.64753324 0.56723261 1.4064584 4279113485
-0.64243782 0.56696904 1.4058056 4278981901
-0.63778883 0.56746489 1.4070358 4278981902
-0.65607017 0.57289726 1.40625 4278587914
-0.65242654 0.57306749 1.4066666 4278982411
-0.64720708 0.5726943 1.4057502 4279113485
-0.64398646 0.57047415 1.4050001 4278389765
-0.6363194 0.57238889 1.4050001 4279179281
-0.65159434 0.57727158 1.4057 4278982155
-0.64712071 0.57740682 1.4055626 4279113485
-0.64214581 0.57820159 1.4051667 4278981901
-0.63729829 0.57780319 1.4057502 4279047695
-0.65073472 0.58178657 1.4055002 4278982154
-0.64737946 0.58242887 1.4061252 4279113485
-0.64271683 0.58254993 1.4064168 4278981901
-0.63818467 0.58183241 1.4070001 4279047694
-0.65014136 0.58711475 1.405875 4278982154
-0.64699465 0.58774126 1.407375 4278850314
-0.6421088 0.58838218 1.4084501 4279179280
-0.6387409 0.58693027 1.4086502 4279047694
-0.65031481 0.59206235 1.4062501 4278982154
-0.64746439 0.59250665 1.4078749 4278916107
-0.64210796 0.59238273 1.4092917 4279113487
-0.63847071 0.59161478 1.4097501 4279179281
-0.65008354 0.59568328 1.40575 4278982154
-0.64740098 0.5974189 1.4073334 4278784777
-0.64215231 0.59722507 1.4093889 4279113487
-0.64600605 0.6011399 1.4073126 4278850315
-0.64256501 0.60247266 1.4081876 4279113487
-0.6398828 0.60362029 1.4086251 4278916107
-0.64190871 0.60736978 1.4067501 4279113487
-0.63959897 0.60623085 1.4080001 4278916107
-0.64207739 0.61193824 1.4064168 4279310866
-0.65228927 0.61854327 1.4072001 4278916362
-0.64785635 0.6173315 1.40925 4278587398
-0.65637457 0.62303805 1.405875 4278587658
-0.65275276 0.62130427 1.4073751 4278785033
-0.65792948 0.62746012 1.4061251 4278718730
-0.66101265 0.63340646 1.4065626 4278850315
-0.65929097 0.63166624 1.4076667 4278718730
-0.66215754 0.63805747 1.4069582 4278784521
-0.66144454 0.64205182 1.4066073 4278850058
-0.6613549 0.64526302 1.4052501 4278916107
-0.65881091 0.64750367 1.4059583 4278784523
-0.65643269 0.65135491 1.4060001 4278587658
-0.97538352 0.22474664 1.4102501 4280233250
-0.97659391 0.22694978 1.4120001 4279838494
-0.97535783 0.23866427 1.4130001 4280691485
-0.97449493 0.23652919 1.4117501 4280888864
-0.98744935 0.24337205 1.4123751 4280363028
-0.97581798 0.24263024 1.4136667 4280363286
-0.97312057 0.24303997 1.4132502 4280560409
-0.98674935 0.24728581 1.4127501 4280363548
-0.97319782 0.24751556 1.4140626 4280297754
-0.97115874 0.25109154 1.4125001 4280363292
-0.98657465 0.25975412 1.4125 4280887837
-0.9900763 0.26402393 1.4147501 4280757278
-0.98990273 0.26346406 1.4117501 4280757278
-0.97184628 0.26186433 1.4135001 4280559131
-0.99305815 0.26571694 1.4135001 4280232219
-0.95614433 0.2718327 1.4102501 4280297755
-0.95472783 0.27486145 1.411 4280099868
-0.9515931 0.27795595 1.4120625 4280034842
-0.94700146 0.27824727 1.4119167 4280034583
-0.94200653 0.28258595 1.4111668 4280099603
-0.58992738 0.2830036 1.4132501 4282997324
-0.94292086 0.28690627 1.4135001 4280165143
-0.5879994 0.28685555 1.4132501 4282274632
-0.58393669 0.30023104 1.4127501 4282732620
-0.58280003 0.30541119 1.4100001 4282403906
-0.92920935 0.31315282 1.4102501 4280230936
-0.5946576 0.32287663 1.41075 4281285938
-0.59800947 0.32846722 1.4141251 4281350707
-0.59660059 0.33321533 1.4138335 4281678390
-0.59399354 0.33415928 1.4137502 4281547314
-0.59271216 0.33720607 1.4117223 4281613108
-0.58841622 0.33757925 1.4119376 4281876796
-0.59156102 0.34005907 1.4102501 4281810745
-0.58710641 0.34136024 1.4103333 4281746233
-0.5848273 0.34294188 1.4102501 4281746491
-0.59049439 0.34960645 1.4100001 4281351218
-0.58686978 0.3483665 1.4105357 4281679930
-0.5848273 0.34582469 1.4102501 4282139713
-0.5917182 0.35264516 1.4106251 4281285428
-0.5876559 0.35267144 1.4115001 4281482803
-0.59239954 0.35690099 1.41225 4281219889
-0.5894056 0.35587513 1.4120001 4281483056
-0.60892999 0.36411452 1.4103751 4280954409
-0.61116469 0.36865982 1.4118334 4280560420
-0.60927939 0.367789 1.4134169 4280626214
-0.61108887 0.37290671 1.4109167 4280560677
-0.60870463 0.37321469 1.4120835 4280560933
-0.61165375 0.37650791 1.4100001 4280363555
-0.60911894 0.37768623 1.4108125 4280560166
-0.6092627 0.38207778 1.4107001 4280625697
-0.61550093 0.38995868 1.4100001 4280428063
-0.61115676 0.3868475 1.4103333 4280296995
-0.62149191 0.39394137 1.4105 4280494375
-0.61844373 0.39305288 1.41145 4280493858
-0.6139037 0.39016607 1.41075 4280691235
-0.62184066 0.39713717 1.4127501 4280560161
-0.62336457 0.4009124 1.4147501 4280757280
-0.62000698 0.40960929 1.4115001 4280757282
-0.61989713 0.40761349 1.4112501 4280757028
-0.62028146 0.41267723 1.4121251 4280494881
-0.62261933 0.41711879 1.4108751 4280495137
-0.62330574 0.4207778 1.4102501 4281021232
-0.6169064 0.43276918 1.4117502 4282338628
-0.6152817 0.43728629 1.4139167 4282601032
-0.61371434 0.43850851 1.4147501 4282666825
-0.85108227 0.44423366 1.4115001 4279836948
-0.84778094 0.44305637 1.4108126 4280164372
-0.84359503 0.44384027 1.4102501 4279835668
-0.81562567 0.44284016 1.410125 4279573523
-0.81220597 0.44305593 1.4102001 4279375884
-0.80978262 0.44184008 1.4100001 4279836176
-0.6656971 0.4430294 1.41175 4280032534
-0.65524805 0.44462708 1.4127501 4280232221
-0.65211254 0.44403765 1.4129167 4279836946
-0.64799714 0.44301519 1.4137501 4279771415
-0.64203852 0.44319361 1.4112501 4279904027
-0.61510038 0.44197369 1.4135001 4282864718
-0.61371434 0.44140053 1.4147501 4282732620
-0.85569066 0.44847769 1.4127501 4280033824
-0.85287505 0.44659188 1.4128752 4279902489
-0.81569797 0.44576216 1.4102501 4279572756
-0.81303662 0.44634998 1.4100834 4279507472
-0.80992621 0.44576216 1.4102501 4279638027
-0.66704798 0.44767392 1.41325 4279375114
-0.65798944 0.44517785 1.4145001 4279510291
-0.6501556 0.44509915 1.41425 4279838483
-0.64845538 0.44525653 1.4147501 4279969049
-0.63586211 0.44647333 1.4125 4280823593
-0.63144886 0.4480015 1.4112501 4281676335
-0.62726438 0.44872463 1.4105 4282137654
-0.61616731 0.44663104 1.4130001 4282602313
-0.83344656 0.45473576 1.41425 4279836946
-0.77392012 0.45377117 1.4112501 4280097805
-0.66622204 0.4500044 1.4115001 4278848515
-0.62193197 0.45192799 1.4115 4282731844
-0.61840975 0.4502435 1.41225 4282338377
-0.83166426 0.45674387 1.4145001 4279771918
-0.82679284 0.45661497 1.4111251 4279508239
-0.82353956 0.45929664 1.4105 4279969047
-0.661147 0.46396202 1.4130001 4278454275
-0.81521666 0.46580517 1.4127501 4279509268
-0.66143727 0.46756375 1.41225 4278784266
-0.6501556 0.46822706 1.41425 4279376658
-0.64826399 0.46889687 1.4143333 4279047694
-0.66303968 0.47191638 1.4108751 4278850315
-0.65173918 0.47279453 1.4135001 4278850568
-0.64778423 0.47217625 1.4138126 4278981902
-0.66640151 0.47849482 1.4126999 4278784263
-0.66464931 0.4752633 1.41225 4278916107
-0.65264571 0.47756806 1.413375 4278850568
-0.64819479 0.4774223 1.4136562 4278981901
-0.66743141 0.48288435 1.4120252 4278784263
-0.66366124 0.48364565 1.41425 4278850316
-0.65635484 0.48283234 1.4137501 4278916619
-0.65205538 0.48256749 1.4133501 4278981898
-0.64913332 0.48167574 1.4141251 4278850315
-0.80754292 0.48951417 1.4145 4279703568
-0.80464816 0.4895142 1.4145001 4279965202
-0.68679518 0.48996523 1.4102501 4279899141
-0.67154193 0.48765492 1.41135 4278849800
-0.66698468 0.48721281 1.4123001 4278718470
-0.66245246 0.48702914 1.4121875 4278784523
-0.65747571 0.48691007 1.4118439 4278785291
-0.65225017 0.4872756 1.4130909 4278982155
-0.81043732 0.49336952 1.4145001 4279966994
-0.80697209 0.49205717 1.4135001 4279703568
-0.80233735 0.4921279 1.4131501 4280294164
-0.7990002 0.49345669 1.4147501 4279769613
-0.79224491 0.49345669 1.4147501 4279572996
-0.78934991 0.49345669 1.4147501 4280098055
-0.68707573 0.49283561 1.411393 4279702275
-0.68276024 0.49209422 1.4130499 4279111938
-0.67755824 0.49129158 1.41185 4278914565
-0.67277247 0.4919273 1.413125 4278784008
-0.66767746 0.49268666 1.4125417 4278718469
-0.6630401 0.49210489 1.4108752 4278850315
-0.65759629 0.49155208 1.4102083 4278850828
-0.65276033 0.49243546 1.412375 4278916361
-0.86706591 0.49979597 1.4108751 4279705101
-0.86425537 0.49984026 1.411 4279441940
-0.84470648 0.49774095 1.4105 4279506191
-0.68788505 0.49724814 1.4118334 4279702019
-0.67535686 0.49529719 1.4145001 4278586631
-0.67228413 0.49516582 1.414125 4278915593
-0.66807163 0.49682933 1.413375 4278718469
-0.6623593 0.49784398 1.4107918 4278850315
-0.65766138 0.49765295 1.4102501 4278785036
-0.65321487 0.49769518 1.4119285 4278850568
-0.8671428 0.50272471 1.411 4279770891
-0.86363697 0.5029251 1.4115626 4279441937
-0.69076544 0.50254667 1.4105 4279964423
-0.68873423 0.50273502 1.41265 4279833091
-0.66523761 0.50457853 1.4135001 4278916107
-0.66254693 0.50239509 1.4118751 4278784523
-0.65744025 0.50281388 1.4112501 4278785292
-0.65280485 0.5024147 1.4121563 4278916361
-0.64958096 0.50343704 1.4130001 4279376658
-0.86717921 0.5071221 1.4120001 4279836685
-0.86250299 0.50737005 1.4123335 4279507477
-0.85834581 0.50911421 1.4118334 4278982927
-0.70140105 0.50890422 1.4112501 4279899404
-0.69726884 0.50875795 1.4112 4279308033
-0.69278616 0.5073595 1.4111876 4279833349
-0.68925023 0.50740063 1.4133126 4279833091
-0.66211098 0.50728863 1.4130001 4278784523
-0.65784794 0.50793678 1.4121251 4278785292
-0.65296096 0.50788158 1.4119723 4278916361
-0.64759314 0.5082556 1.4123439 4278981901
-0.8672055 0.51188475 1.4130627 4279705100
-0.8625682 0.51236069 1.4126501 4279441942
-0.85863268 0.51242936 1.4112501 4278916879
-0.7064088 0.51394105 1.4109999 4279439880
-0.70277178 0.51258266 1.4122001 4279833867
-0.69744372 0.5128234 1.4123334 4279308033
-0.69264698 0.51283836 1.412375 4279964679
-0.6882422 0.51218259 1.4132223 4279767811
-0.68307543 0.51351178 1.4137 4279111938
-0.67697144 0.51448685 1.4125 4278914567
-0.6657083 0.51457381 1.4145001 4278916107
-0.66230625 0.5122534 1.4134167 4278784523
-0.65742135 0.51305813 1.4124501 4278785291
-0.65251935 0.51245534 1.4118501 4278916361
-0.64711839 0.51264161 1.4118334 4279047694
-0.64394981 0.51222289 1.4133334 4279113486
-0.86648369 0.51740217 1.41275 4279639307
-0.86206424 0.51759076 1.4114643 4279441941
-0.7065345 0.51685274 1.4112501 4279571722
-0.70291001 0.51782167 1.4121876 4279833867
-0.69745755 0.51764488 1.4123611 4279308033
-0.69236112 0.51743603 1.4117918 4279964679
-0.68802518 0.51667249 1.4114585 4279767555
-0.68252981 0.51536036 1.411375 4279177730
-0.67511815 0.51631886 1.414 4278586631
-0.67158651 0.51864296 1.4133334 4278981387
-0.66736913 0.51797003 1.4132501 4278718469
-0.66251123 0.51786757 1.4123126 4278784523
-0.6569944 0.51764518 1.4123609 4278850827
-0.65218383 0.51765066 1.4123751 4278916361
-0.64759326 0.5173986 1.4123437 4278981901
-0.64379793 0.51595378 1.4130001 4279113486
-0.86602682 0.52089983 1.41075 4279770889
-0.86291039 0.52076137 1.4103751 4279441937
-0.70231056 0.5208075 1.4105 4279834124
-0.6973446 0.52157116 1.4108334 4279308033
-0.69269013 0.5208075 1.4105 4279767812
-0.66665298 0.52076137 1.4103751 4278718469
-0.66165721 0.52168715 1.4108001 4278784523
-0.65740216 0.5229286 1.4116876 4278785035
-0.65294766 0.52249581 1.4133334 4278916361
-0.64818794 0.52151906 1.4141668 4279047694
-0.65645361 0.52645022 1.4112 4278916620
-0.68535686 0.53454715 1.4112501 4279637252
-0.68223023 0.53222752 1.4127501 4279111681
-0.67789203 0.53164077 1.4137501 4278914566
-0.68681353 0.53761053 1.41425 4279571460
-0.69076544 0.54195189 1.4105 4279964423
-0.68896323 0.54012537 1.41075 4279701249
-0.69230384 0.54756278 1.4136429 4279898629
-0.65129298 0.54835635 1.4146252 4279113485
-0.64845538 0.54936886 1.4147501 4278389765
-0.69522953 0.55012786 1.4117501 4279439616
-0.69271517 0.55209428 1.4118612 4279833348
-0.6883598 0.55327189 1.4134644 4279767555
-0.65600169 0.55404174 1.4143751 4278916361
-0.6522541 0.55272698 1.4140939 4278982155
-0.64780903 0.55358994 1.4140419 4278850316
-0.69064301 0.555309 1.4102501 4279964423
-0.68728215 0.55570269 1.4112501 4279702019
-0.67218488 0.5570429 1.4127001 4278784009
-0.66813087 0.55658871 1.4135001 4278718469
-0.65769374 0.55684161 1.4123125 4278850828
-0.65244401 0.55791479 1.4113752 4278916361
-0.64720732 0.55793232 1.4120278 4279047694
-0.64313453 0.55787182 1.4139644 4279047693
-0.64177054 0.56156605 1.4121788 4279047694
-0.63806915 0.563142 1.4138333 4279112975
-0.63801676 0.56609374 1.4115833 4279113231
-0.63745046 0.57225293 1.4117501 4278981902
-0.63793963 0.57750577 1.4128333 4278981902
-0.63775152 0.5831098 1.4124168 4278981902
-0.63767624 0.58881468 1.41225 4278981902
-0.6385839 0.59364116 1.4100001 4279179281
-0.63869709 0.59662926 1.4102501 4279179281
-0.641927 0.61325216 1.413125 4278916107
-0.64704126 0.6187107 1.4116668 4279047694
-0.64419663 0.6174314 1.4138751 4279113486
-0.64780498 0.62136734 1.4133334 4279047694
-0.65939426 0.632622 1.4133751 4278587914
-0.66006494 0.63715243 1.41275 4278653194
-0.65974331 0.63591492 1.4100001 4278718730
-0.66044515 0.64236206 1.4115001 4278718730
-0.66032821 0.64609486 1.4112501 4278718730
-0.65729165 0.65748662 1.4130001 4278719498
-0.65752423 0.66060907 1.4135001 4278719498
-0.98565429 0.22041735 1.4195001 4279967764
-0.98285151 0.2240888 1.4182501 4279575572
-0.99639368 0.22681205 1.4191667 4280101664
-0.99481106 0.2280347 1.41875 4279838494
-0.99463576 0.23186077 1.4185001 4280558881
-0.99068856 0.23814276 1.4156251 4280757278
-0.99060112 0.24101554 1.4155 4280429337
-0.97678858 0.25204799 1.4178751 4280560414
-0.97808027 0.25528294 1.4197501 4280232991
-0.98884469 0.26324636 1.41575 4280691228
-0.96733594 0.26191604 1.41725 4280494876
-0.96350765 0.26281601 1.41655 4280625434
-0.992477 0.26755282 1.4173928 4280559900
-0.96384275 0.26767111 1.41875 4280428053
-0.99633533 0.27127919 1.4190835 4280690720
-0.9925195 0.27073765 1.419625 4280822048
-0.95283622 0.28266668 1.4173501 4279968533
-0.94823879 0.2828142 1.417125 4280034580
-0.58804125 0.28878587 1.4180001 4282668877
-0.94785738 0.29071712 1.4180001 4280427542
-0.5881449 0.29173595 1.4182501 4282470726
-0.58783382 0.29544517 1.4175 4282470212
-0.59059978 0.31907582 1.4195001 4282139966
-0.59609425 0.3247076 1.41875 4281482806
-0.59382731 0.32294488 1.4195 4281810745
-0.59666544 0.32786351 1.4173501 4281351476
-0.59447289 0.32874823 1.4195001 4281548597
-0.59611446 0.33094829 1.4165001 4281613882
-0.59357166 0.33249903 1.4173501 4281679927
-0.58759141 0.34222925 1.41925 4281680953
-0.58607221 0.34770381 1.4179167 4281680957
-0.58600336 0.35152805 1.4177501 4281549624
-0.59039176 0.3576394 1.419 4281746230
-0.60660917 0.36368519 1.4161875 4281086508
-0.60175896 0.36329135 1.4184169 4280823596
-0.59713858 0.3619394 1.4181668 4281219123
-0.60710627 0.36688107 1.4173502 4280955177
-0.60297465 0.36537457 1.419 4280955436
-0.62194979 0.39896998 1.4181252 4280757285
-0.62457627 0.40362343 1.4175 4280560934
-0.62165415 0.41648358 1.4152501 4281085993
-0.62545753 0.42353773 1.4195001 4281022253
-0.62446612 0.42093495 1.41725 4280430370
-0.6255126 0.4264769 1.419625 4281547572
-0.62287545 0.42869624 1.4195 4281678900
-0.618734 0.42937899 1.419625 4281482804
-0.6208182 0.43074393 1.4177501 4282271552
-0.61687171 0.43206859 1.4175714 4282075198
-0.61293864 0.43344656 1.4181666 4282338625
-0.60964292 0.43491468 1.41875 4282601539
-0.61212826 0.4373776 1.4162917 4282864714
-0.60870153 0.43783402 1.4188126 4282799179
-0.66243356 0.4436419 1.41575 4279902483
-0.61171615 0.44245943 1.4160833 4282864973
-0.60902458 0.44206792 1.4184376 4282733387
-0.85735595 0.44935066 1.4155 4279836956
-0.66649264 0.44763312 1.4161667 4279703566
-0.66306287 0.44615209 1.4160626 4279771152
-0.6469087 0.44725296 1.4170002 4280298273
-0.6430043 0.4480933 1.4176251 4279640853
-0.63732588 0.44846499 1.41575 4280625185
-0.61613393 0.44850534 1.4158751 4282602055
-0.61303461 0.44665837 1.4167502 4282930770
-0.83670503 0.45352888 1.4165001 4278982152
-0.66806144 0.45255491 1.4195001 4278322688
-0.64675945 0.45158786 1.4195001 4279705881
-0.64263487 0.45237821 1.4189444 4279770907
-0.63861942 0.45130992 1.4186251 4280558111
-0.61810893 0.45238304 1.4177501 4283324240
-0.83017445 0.45891473 1.4152501 4279771666
-0.64700931 0.45837289 1.41835 4279046412
-0.64332366 0.45788774 1.4190416 4279310611
-0.64713448 0.46304405 1.4160835 4278651398
-0.64212 0.46209189 1.4183439 4278782726
-0.81516021 0.46880645 1.416 4279705110
-0.65136236 0.46619955 1.4168751 4278980364
-0.64760482 0.46654701 1.4150001 4278519811
-0.64271909 0.46720591 1.4170001 4278717703
-0.66269684 0.47273058 1.4186786 4278718987
-0.65402997 0.47278917 1.4163752 4278850568
-0.64505082 0.4745118 1.41575 4279113486
-0.64338142 0.47140333 1.4170417 4279047437
-0.80361938 0.47576869 1.4195001 4279637000
-0.7990216 0.4776594 1.4165001 4279769870
-0.66287971 0.47722578 1.4180834 4278718987
-0.65848029 0.47760075 1.4180501 4278916619
-0.64607602 0.47719836 1.4180001 4279113486
-0.79797268 0.4825967 1.4191002 4279441928
-0.79231328 0.48419845 1.41775 4280098568
-0.66233826 0.48209375 1.4160627 4278653194
-0.65808243 0.48105621 1.4160833 4278982413
-0.64698172 0.48300147 1.41575 4279113488
-0.82104826 0.48931003 1.4195001 4279969049
-0.81763935 0.4890084 1.4186251 4279639060
-0.81217998 0.48889017 1.4164168 4279769615
-0.80762768 0.48830256 1.4177001 4280097556
-0.80243909 0.48821342 1.4191251 4279703306
-0.79778081 0.48674327 1.4184644 4279441929
-0.79243881 0.48783451 1.4168215 4279835910
-0.78866798 0.48862866 1.4161251 4279506689
-0.64755124 0.48768738 1.416393 4278850316
-0.64300168 0.48854676 1.4186876 4278981901
-0.84042162 0.4939799 1.4162501 4279770135
-0.83740973 0.49274948 1.4168751 4279770134
-0.83178234 0.49252307 1.4185416 4279639052
-0.82769912 0.49313173 1.4185716 4279573517
-0.82255638 0.49253511 1.4183438 4279705361
-0.81719935 0.49263555 1.417143 4279639317
-0.81253046 0.49183235 1.415625 4279506701
-0.80213302 0.49081844 1.416875 4279965966
-0.79712194 0.49190027 1.4158214 4279507466
-0.7930336 0.49117494 1.4155835 4279704582
-0.78962886 0.49170238 1.4152501 4280098055
-0.65050042 0.49354389 1.4150001 4279376658
-0.64733982 0.49257359 1.4170625 4279047694
-0.6423831 0.49279281 1.4183888 4279047438
-0.63783413 0.49325258 1.4186001 4278914826
-0.63469279 0.49476466 1.4185001 4278784010
-0.85068238 0.49915671 1.4172502 4279966742
-0.84707201 0.49680912 1.4160626 4279572497
-0.84238291 0.49647146 1.4156501 4279507473
-0.82697737 0.49696237 1.4170501 4279573517
-0.8228724 0.49684533 1.4170834 4279639310
-0.68657702 0.49849832 1.41675 4279374595
-0.68230957 0.49614337 1.4169168 4278980097
-0.67752606 0.49547225 1.4150001 4278914826
-0.66787404 0.49932894 1.4150001 4278652676
-0.65092176 0.49772313 1.4159168 4279376658
-0.64806712 0.49753305 1.4181252 4278981901
-0.6423772 0.49762058 1.4183751 4279047438
-0.63725847 0.49740124 1.4177501 4278914826
-0.63275701 0.49766421 1.4185001 4278718215
-0.62944144 0.49907032 1.4197501 4278848258
-0.8707844 0.50056404 1.4185001 4279442190
-0.85366869 0.50170684 1.4190001 4279507733
-0.687244 0.50248176 1.4184583 4279374595
-0.6506241 0.50113153 1.4173751 4278850315
-0.64881027 0.50100511 1.4197501 4279442453
-0.64121884 0.50126731 1.4186668 4279113231
-0.63735217 0.50230563 1.4179584 4278914826
-0.63257146 0.50234962 1.4180835 4278718215
-0.62837875 0.50309634 1.4191 4279176965
-0.85530299 0.50636339 1.4185001 4279574037
-0.85394639 0.50749022 1.4162501 4279574037
-0.68668079 0.50741804 1.4168216 4279374595
-0.68428141 0.50888056 1.4183334 4279045888
-0.66606122 0.5080961 1.4152501 4278916107
-0.63674015 0.50645262 1.41875 4278914826
-0.63281339 0.50737482 1.418625 4278718215
-0.62730157 0.50761306 1.4192919 4279373574
-0.68536866 0.51098931 1.4152501 4279309316
-0.6820069 0.5112831 1.4169583 4278980097
-0.6779241 0.51332867 1.4174501 4278783495
-0.67260677 0.51423174 1.418875 4278915849
-0.66770518 0.51247334 1.4166875 4278784263
-0.63126719 0.5105893 1.4195001 4278783492
-0.62841761 0.5106343 1.419625 4279242758
-0.67607301 0.51511949 1.416 4278586631
-0.67246681 0.51628119 1.4165417 4278850057
-0.66822797 0.51502854 1.41575 4278652676
-0.64516473 0.51897889 1.416 4279113486
-0.6527766 0.52467537 1.41575 4278850568
-0.65631044 0.52808177 1.417125 4278916361
-0.68138683 0.5340392 1.4150001 4279045890
-0.67820376 0.53457385 1.4164168 4278783238
-0.66031528 0.53380305 1.4195001 4279048463
-0.68573189 0.53827596 1.416 4279309316
-0.68232918 0.53767532 1.4169583 4278980097
-0.6772663 0.53826016 1.4184999 4278717960
-0.69103885 0.54368091 1.4150001 4279701249
-0.6877104 0.54255426 1.4170938 4279505667
-0.68325233 0.54178613 1.4188751 4278980097
-0.67877209 0.54158866 1.419625 4278717960
-0.65528607 0.54444933 1.4170001 4278982154
-0.65173692 0.54323256 1.4168501 4278916363
-0.64851964 0.54444939 1.4170001 4278916109
-0.69103885 0.5456093 1.4150001 4279701249
-0.68743443 0.54735368 1.4177045 4279440131
-0.68367416 0.54937565 1.4197501 4279045890
-0.65721923 0.54927635 1.4170001 4278916361
-0.65331829 0.54686278 1.4152501 4278982155
-0.64691144 0.5477314 1.4161252 4279047694
-0.64436865 0.54889196 1.4185001 4278916107
-0.68669838 0.55155331 1.4164001 4279440388
-0.6828711 0.55259508 1.4180834 4278980097
-0.67757744 0.55333769 1.4185716 4278717960
-0.67257684 0.55384636 1.4188126 4278915849
-0.6675126 0.55462605 1.4183334 4278784521
-0.66143477 0.55294782 1.41775 4278719243
-0.65796596 0.55236202 1.4158335 4278982413
-0.64584517 0.55154049 1.415375 4279245073
-0.64281899 0.55274099 1.4172188 4279047694
-0.6852476 0.555251 1.4150001 4279309316
-0.68218905 0.55590504 1.4166669 4278980097
-0.67721832 0.55579054 1.4163752 4278717960
-0.67244667 0.5558396 1.4165001 4278849801
-0.66779244 0.55598676 1.4168751 4278784263
-0.66251224 0.55561066 1.4159168 4278718986
-0.64183176 0.55618829 1.41575 4279047695
-0.63872248 0.55785084 1.4167084 4279112975
-0.63698757 0.56103605 1.4150001 4279112975
-0.6378879 0.56762224 1.4170001 4279112975
-0.64049828 0.58948743 1.4185001 4278981902
-0.65721864 0.62748486 1.4170002 4278850826
-0.65996641 0.63212734 1.41875 4278719498
-0.66131872 0.63929743 1.4175 4278587914
-0.6608007 0.64302361 1.4180501 4278587914
-0.66120207 0.64787602 1.41725 4278587914
-0.65919191 0.64778513 1.4191667 4278850826
-0.66078806 0.6522851 1.4184376 4278653706
-0.65849471 0.65192115 1.4197501 4278982154
-0.66031528 0.65664256 1.4195001 4278719498
-0.65493923 0.66768444 1.4162501 4278982154
-1.0006107 0.21339111 1.4242501 4280230938
-1.0003766 0.21722181 1.4239168 4280033559
-0.99732667 0.21762285 1.4240001 4280099352
-0.99357748 0.2172222 1.4239167 4280033559
-0.98985195 0.21801364 1.4227501 4280230425
-0.9977259 0.22258815 1.4225626 4280034070
-0.99286777 0.22213204 1.4242917 4280165143
-0.98808455 0.22387037 1.4230001 4279969047
-0.99707454 0.22511584 1.4247501 4279575572
-0.99124336 0.22511584 1.4247501 4279575572
-0.98742628 0.22757165 1.4239168 4280101664
-0.98735601 0.23094071 1.4247501 4280954409
-0.97851086 0.2582989 1.4203751 4280889119
-0.97954422 0.2624473 1.421875 4280756251
-0.98031926 0.26556355 1.4230001 4280954657
-0.97723603 0.2664867 1.42275 4280231448
-0.97346812 0.26528361 1.4215001 4280166163
-0.99650866 0.27408278 1.4202499 4280035102
-0.99313128 0.27380854 1.4205 4280166175
-0.96520144 0.27288839 1.42075 4280100633
-0.964692 0.27080917 1.4200001 4280364057
-0.99762118 0.27785119 1.421375 4280165661
-0.99391776 0.27790007 1.421625 4280165661
-0.99744052 0.28259465 1.4225001 4280493085
-0.99408311 0.28209722 1.42325 4280624671
-0.9511314 0.28435528 1.4200001 4280560153
-0.95647281 0.28799129 1.423625 4280165141
-0.95238745 0.28763768 1.421875 4280098836
-0.9495284 0.28639126 1.4205 4279508235
-0.95414561 0.29205078 1.4245001 4280295957
-0.59180045 0.32260284 1.4208332 4281942335
-0.58980364 0.32163218 1.42225 4282139713
-0.59311646 0.32698947 1.4216667 4281811257
-0.59326679 0.33205843 1.4212501 4281548598
-0.59127587 0.33590221 1.4211251 4281812028
-0.58969998 0.33901662 1.4220001 4282074692
-0.59284937 0.35988992 1.4202501 4281285687
-0.58887058 0.35595626 1.4200001 4281810740
-0.59622753 0.36308047 1.421375 4281088052
-0.60791552 0.36989272 1.4215001 4280824103
-0.60244995 0.36739066 1.4211874 4281152048
-0.59939975 0.36614704 1.4220001 4281218100
-0.61141545 0.37315953 1.422875 4280494882
-0.60756809 0.37293598 1.4236072 4280823850
-0.60348058 0.37119031 1.4240001 4281151793
-0.61108834 0.37646419 1.4243751 4280889641
-0.61229396 0.38837728 1.4241667 4280625698
-0.60995615 0.38994938 1.424 4280428833
-0.61596274 0.39288458 1.4229168 4280625960
-0.61241287 0.39256704 1.4229376 4280494373
-0.60781497 0.39231592 1.4235357 4280626213
-0.60351592 0.39320651 1.4240834 4280954408
-0.6200844 0.39673427 1.4205 4280625444
-0.61686236 0.39692593 1.4235001 4280691750
-0.61217111 0.39725783 1.4223751 4280691752
-0.60726833 0.39682344 1.4216876 4281020200
-0.60304409 0.39721069 1.4222083 4281086506
-0.62472892 0.40303773 1.42225 4280889638
-0.61244023 0.40228099 1.4230001 4280626468
-0.60746205 0.40213543 1.4218 4281021226
-0.60403693 0.40088797 1.4215001 4281085740
-0.62505835 0.40712878 1.4230001 4280692518
-0.62472892 0.4088524 1.42225 4281020972
-0.61222118 0.40568784 1.4247501 4281020970
-0.60779983 0.40533188 1.4235001 4280758055
-0.62388337 0.41345435 1.4247501 4280494110
-0.62268305 0.41771969 1.42275 4280559907
-0.61983275 0.41819808 1.4243751 4280362533
-0.6221351 0.42238313 1.4213126 4280824104
-0.61771148 0.42300543 1.4234064 4280889897
-0.61394936 0.42495501 1.4242501 4281350450
-0.62196726 0.42621824 1.420375 4281350959
-0.61730224 0.42733648 1.4211073 4281613618
-0.61323023 0.42843142 1.4218334 4281680180
-0.61101353 0.43167365 1.4208126 4282207294
-0.60834992 0.43537453 1.4202501 4282930763
-0.60888535 0.44350651 1.4215001 4283062351
-0.85517263 0.44931814 1.4215001 4279836178
-0.65246594 0.44995031 1.4235001 4279639571
-0.86215144 0.45380357 1.4234167 4281088042
-0.85712087 0.4517712 1.423125 4279375888
-0.85286576 0.45111826 1.4241251 4279770643
-0.84738463 0.45195022 1.4247084 4279770901
-0.84337389 0.45414898 1.4245001 4279705364
-0.64877385 0.45305923 1.4210835 4280099613
-0.63722658 0.45383584 1.4220001 4280559137
-0.61626828 0.45266128 1.4228752 4283193678
-0.66827792 0.45701301 1.4213333 4278651651
-0.65086675 0.45601025 1.4242501 4279572756
-0.64972425 0.4571473 1.4217501 4279705112
-0.64117563 0.45658463 1.4200001 4279114518
-0.63750714 0.45742846 1.4226249 4279705110
-0.66682881 0.46077925 1.4210001 4278783490
-0.66483176 0.46364313 1.4208751 4278652164
-0.63849038 0.46249887 1.4220358 4279047182
-0.82394034 0.46967933 1.4245001 4279376910
-0.66215008 0.46776989 1.4206667 4278651909
-0.65554309 0.46877259 1.4217501 4278717445
-0.63880163 0.46712205 1.4226251 4278716677
-0.8121376 0.47347879 1.4242501 4280032278
-0.80697459 0.47466868 1.4220001 4281017372
-0.66060603 0.47113973 1.420125 4279048463
-0.65783501 0.47220409 1.4204167 4278916361
-0.65485144 0.47021353 1.4202501 4278850568
-0.64188975 0.47259149 1.4215833 4279047182
-0.81123739 0.47740251 1.4243751 4279965972
-0.80754274 0.47742605 1.423 4280359956
-0.64539075 0.47618762 1.42075 4278916107
-0.82641995 0.48495418 1.42375 4279639310
-0.81019449 0.48124263 1.4242501 4279965202
-0.80733979 0.48263812 1.4226428 4280294163
-0.80290878 0.48250151 1.4208126 4279703563
-0.83099395 0.48741263 1.4224375 4279705103
-0.82768345 0.48790395 1.4217501 4279442188
-0.82313693 0.48753676 1.4211 4279836691
-0.81785512 0.48836264 1.4223751 4279507215
-0.81169063 0.4864085 1.4223334 4279834898
-0.80723447 0.48683628 1.42075 4280491287
-0.80314612 0.4857403 1.4203751 4279703306
-0.63681811 0.49448183 1.4232501 4278784010
-0.8539837 0.49818599 1.4227501 4279966742
-0.68415564 0.49942181 1.42075 4279045890
-0.63342673 0.49528787 1.4200001 4278718217
-0.87206489 0.50241667 1.42375 4279441940
-0.8689003 0.5036484 1.4217501 4279441940
-0.8571682 0.50203347 1.4226667 4279508245
-0.68579215 0.50404036 1.420125 4279046144
-0.68293434 0.50230598 1.42275 4278914565
-0.67787087 0.50244612 1.4238334 4278784008
-0.67294455 0.50344467 1.423 4278718469
-0.65120548 0.50329417 1.42075 4278389765
-0.64703262 0.50259089 1.4209502 4279047694
-0.64322609 0.50311702 1.4202501 4279179281
-0.62711495 0.50239563 1.4215 4279570440
-0.62494856 0.50400269 1.4227501 4279175170
-0.86764669 0.5069555 1.4228752 4279573273
-0.85650891 0.50514144 1.4205 4279574037
-0.68248445 0.50730312 1.4218125 4278914565
-0.67756659 0.5080387 1.4231944 4278784008
-0.67242384 0.50782055 1.4225832 4278718469
-0.6512087 0.50695592 1.4228752 4278916109
-0.64711887 0.5074439 1.4237001 4279047693
-0.64302689 0.50655895 1.4226669 4279113231
-0.63894403 0.50840288 1.4215001 4278914826
-0.62328315 0.5073145 1.4211668 4279438341
-0.86669427 0.51044649 1.4245001 4278916879
-0.68015951 0.51094902 1.4205 4278914826
-0.67746109 0.51207411 1.4209375 4278652423
-0.67296141 0.51184911 1.42085 4278850056
-0.65086675 0.5103569 1.4242501 4279442453
-0.6491515 0.51053607 1.4247501 4279113486
-0.6273517 0.51240104 1.4205002 4279373574
-0.62321037 0.51209736 1.421 4279438341
-0.6270538 0.51674259 1.423125 4279504390
-0.62414229 0.51577204 1.423125 4279438341
-0.65577358 0.52902251 1.42225 4278850568
-0.6528936 0.52750111 1.423375 4279113487
-0.65802151 0.53282547 1.4229168 4278916361
-0.65498263 0.53189403 1.4247501 4279376658
-0.67410845 0.53979653 1.4200001 4279112973
-0.66212481 0.53797299 1.4220001 4278851085
-0.65797645 0.53743035 1.4233439 4278916361
-0.65475279 0.53947121 1.4242501 4279376658
-0.68094862 0.54371476 1.420125 4278914566
-0.67688996 0.54318136 1.4204167 4278718215
-0.67272305 0.54314536 1.4211668 4278849799
-0.6670208 0.54304856 1.4219999 4278784522
-0.66254514 0.54257423 1.4222083 4278785292
-0.6579563 0.54234743 1.42225 4278916361
-0.65262473 0.54210007 1.423 4278981901
-0.64886785 0.54443264 1.4220002 4279245073
-0.68176496 0.54741579 1.4203125 4278914565
-0.67739159 0.54784244 1.4207917 4278652423
-0.6730938 0.54784918 1.4214376 4278850056
-0.66747397 0.54748386 1.4223751 4278784523
-0.66220778 0.54788196 1.4219 4278851085
-0.65907443 0.54695421 1.421 4278916361
-0.64647138 0.54639298 1.4220626 4278916107
-0.6441319 0.54937327 1.42225 4279179281
-0.67701423 0.55140752 1.4200001 4278586631
-0.67175066 0.55169833 1.42075 4278718470
-0.66742289 0.55184436 1.4217501 4278784523
-0.66379219 0.55195719 1.4214168 4278587658
-0.64193159 0.55295908 1.42275 4279112975
-0.64002621 0.55596215 1.4217501 4279112975
-0.64137673 0.57266837 1.4247501 4279112975
-0.64093453 0.59301704 1.4223334 4279047438
-0.63829279 0.59386998 1.4243751 4278849290
-0.64107215 0.59729016 1.4223502 4279047438
-0.63810611 0.59757739 1.4239584 4278849290
-0.6420058 0.60247755 1.4227002 4279047439
-0.63859814 0.60226387 1.4243335 4278849290
-0.6428721 0.60644019 1.4229 4279047695
-0.6442073 0.61243874 1.4224167 4279179281
-0.6451509 0.61721766 1.4245001 4279179281
-0.64762801 0.62293172 1.4242501 4278981900
-0.65633976 0.62845445 1.421375 4278916361
-0.65175092 0.62771839 1.4230001 4279113488
-0.64803725 0.62689644 1.4244376 4278981900
-0.66000211 0.63402092 1.4230001 4278982154
-0.65743226 0.63242388 1.4230417 4278916361
-0.65338087 0.63191634 1.4240834 4279047694
-0.66081756 0.63774973 1.4226667 4278850826
-0.65799087 0.63716573 1.42425 4278916361
-0.66089672 0.64076316 1.42075 4278719498
-0.65818632 0.64263356 1.42275 4278916361
-0.65668547 0.64719707 1.422125 4278916361
-0.65469527 0.64907777 1.4241251 4279376658
-0.65694672 0.65262848 1.4212918 4278916361
-0.65463781 0.65290248 1.424 4279376658
-0.65767425 0.6572299 1.4221668 4278916361
-0.66069782 0.6638087 1.4245001 4278982154
-0.65977013 0.66093808 1.4225 4278982154
-0.6489237 0.673397 1.4242501 4279376660
-0.99646759 0.22757383 1.42555 4279904285
-0.99279279 0.22753377 1.4253 4279904285
-0.98947328 0.22903927 1.4250001 4279838494
-0.99715137 0.23215571 1.4262501 4280756517
-0.9930858 0.23211509 1.4260001 4280756517
-0.98819542 0.23337722 1.4254 4280559649
-0.99727136 0.23670101 1.4267001 4280561183
-0.99249977 0.23706597 1.4265556 4280626719
-0.9874227 0.23798698 1.42625 4280693025
-0.99625224 0.24212864 1.4277501 4280560411
-0.99240011 0.24213937 1.4278126 4280560411
-0.98837459 0.24210754 1.4276251 4280560411
-0.99685746 0.24592538 1.4290833 4280363284
-0.99225068 0.24526159 1.429 4280429589
-0.9883517 0.24526159 1.429 4280429589
-0.99597543 0.25300702 1.42875 4280626462
-0.99475551 0.25464183 1.427 4280494110
-0.99423271 0.25742352 1.4262501 4280364575
-0.99527836 0.26450431 1.4277501 4280690715
-0.99458122 0.26140267 1.4267501 4281019678
-0.99649829 0.26677662 1.4295001 4280757278
-0.97699648 0.26677662 1.4295001 4280232723
-0.97416902 0.26801279 1.4291668 4280363030
-0.95642453 0.29118246 1.4250001 4280624924
-0.59115142 0.3243098 1.4255 4281876541
-0.59213632 0.32776958 1.427875 4282402626
-0.59361625 0.33237207 1.4267501 4281811515
-0.59281027 0.33885658 1.4295001 4282008899
-0.59055001 0.34452003 1.42875 4281483831
-0.59080839 0.35733247 1.4293752 4282205501
-0.59342158 0.36103845 1.4286251 4281614137
-0.60119116 0.36918506 1.4262501 4281020721
-0.60305697 0.37350851 1.4260626 4281152817
-0.61141008 0.37860456 1.4251251 4280692260
-0.60686827 0.37783241 1.4258751 4280954665
-0.60315639 0.37737718 1.4278334 4281152049
-0.61155313 0.38257828 1.4254583 4280691232
-0.60711086 0.38284293 1.4264445 4281019939
-0.60355979 0.38208663 1.42725 4281152045
-0.61049157 0.38640702 1.4252501 4280757282
-0.60726815 0.3873603 1.4259001 4280627238
-0.60383475 0.38729936 1.4267501 4280693035
-0.60649639 0.39022323 1.4250001 4280429348
-0.603468 0.39100745 1.4255 4280692009
-0.62021351 0.39806092 1.4252501 4280363042
-0.62563491 0.40293258 1.42875 4280625696
-0.62246609 0.40180114 1.4281875 4280954663
-0.61840141 0.40292773 1.42735 4280757798
-0.62592953 0.40670216 1.4283125 4280757538
-0.62294728 0.40698108 1.4292917 4281019940
-0.61818516 0.40796643 1.4286501 4280757542
-0.61290187 0.40743443 1.4263334 4280823848
-0.60876071 0.40791553 1.42575 4280560681
-0.62530655 0.41050538 1.4280001 4280494626
-0.62256759 0.41229591 1.4274644 4280560674
-0.61768204 0.41256359 1.4283891 4280429860
-0.6131174 0.41225037 1.4286501 4280758057
-0.60982817 0.41057724 1.4282501 4280758062
-0.6212399 0.41557822 1.425375 4280495393
-0.61737788 0.41778943 1.4271251 4280494631
-0.61431599 0.41779155 1.429625 4280823080
-0.61581898 0.42126194 1.4270834 4280757800
-0.61434579 0.4228338 1.4285626 4280560678
-0.61383253 0.42719644 1.4285001 4281284657
-0.61097348 0.43433541 1.4263752 4282273861
-0.6103974 0.44213197 1.4295834 4282930255
-0.61210668 0.44806033 1.4267501 4283259477
-0.66709775 0.45208102 1.4265501 4279507728
-0.66248232 0.45179141 1.4262501 4279377936
-0.65732384 0.45219654 1.4262143 4279836945
-0.65343994 0.4535363 1.4256251 4279639059
-0.63371307 0.45430836 1.4250001 4282202677
-0.61621243 0.45379496 1.4295001 4283193686
-0.61442888 0.45125416 1.4276251 4283193428
-0.84284556 0.45730174 1.4252501 4279574034
-0.65384102 0.45770264 1.4265001 4279638547
-0.63260084 0.45773673 1.426 4281479984
-0.6273275 0.45921052 1.4281667 4282599748
-0.62205839 0.45794427 1.42725 4283127636
-0.6182707 0.45582274 1.4297501 4283522389
-0.84051847 0.46053794 1.4262501 4279377160
-0.83916068 0.46280587 1.42725 4279705614
-0.83497387 0.46458808 1.4267501 4279311117
-0.65401292 0.46171191 1.4268751 4278783238
-0.63576859 0.46215758 1.4252501 4279376659
-0.6329124 0.46249208 1.4270314 4280099355
-0.62790781 0.46207562 1.4286001 4281021486
-0.62412226 0.46166807 1.4297501 4282601549
-0.83249104 0.46775091 1.4275 4279838230
-0.65716475 0.46696845 1.4280834 4278717447
-0.63626945 0.46786788 1.426375 4278716674
-0.63297462 0.46713749 1.4286001 4279243274
-0.62986368 0.46548358 1.4295001 4279967512
-0.83044207 0.471163 1.429 4279705362
-0.82704729 0.47284198 1.4281875 4279573777
-0.82283854 0.47377291 1.4270834 4279507986
-0.8182143 0.47418523 1.4263752 4279572236
-0.81450927 0.47372812 1.4250001 4279834899
-0.6602574 0.4707509 1.4277501 4278586629
-0.64112878 0.47377285 1.4270834 4278914826
-0.63699442 0.47180668 1.4280001 4278783238
-0.63387489 0.47141033 1.4297501 4279045637
-0.8274824 0.47717234 1.4295001 4279902741
-0.82343888 0.47787473 1.4286876 4279639060
-0.81835771 0.47621253 1.426625 4279572236
-0.81419426 0.47780779 1.4255834 4279900692
-0.64456207 0.47650459 1.4275 4279112975
-0.6385836 0.47518253 1.4293752 4278718217
-0.8314805 0.48329151 1.4274375 4279507981
-0.82762426 0.48239467 1.4286251 4279639312
-0.81384826 0.48322967 1.4272501 4280032278
-0.65086007 0.48267865 1.4285001 4279113486
-0.81493789 0.48757842 1.42575 4279440650
-0.64937931 0.48546511 1.4252501 4279113486
-0.86193562 0.4947052 1.4295001 4279574037
-0.85893518 0.49466196 1.4293752 4279704341
-0.64142841 0.49280176 1.4277501 4278914826
-0.6386115 0.49370942 1.4294375 4278718217
-0.86199206 0.49779254 1.4283001 4279574036
-0.85747653 0.49755862 1.4281073 4279638291
-0.6361416 0.49712861 1.429 4278717957
-0.63298821 0.49993676 1.4277501 4278848258
-0.87805057 0.50320685 1.42875 4279705101
-0.86333179 0.50217623 1.4285835 4279574291
-0.85922229 0.50091577 1.4250001 4279574037
-0.62828428 0.50298679 1.428125 4279372548
-0.62382531 0.50766081 1.4275833 4279570954
-0.86626846 0.51328701 1.427 4279246609
-0.64726216 0.51245403 1.4255834 4278981901
-0.6431613 0.51157242 1.4258333 4279046925
-0.63757974 0.51333195 1.427125 4278718217
-0.63393539 0.51469016 1.4255 4278783492
-0.62270355 0.51213497 1.4265001 4279571211
-0.6015861 0.51223797 1.4295001 4282006073
-0.59859103 0.51217812 1.4293333 4281941053
-0.64777023 0.51732785 1.4274167 4278981901
-0.63652259 0.51697254 1.4291251 4278717958
-0.63254488 0.51805902 1.4267501 4278848258
-0.62993544 0.51848453 1.4252501 4279702795
-0.62359935 0.51782149 1.4274377 4279570954
-0.60163873 0.51617956 1.429625 4282006073
-0.64880222 0.52294821 1.4268335 4278981900
-0.63142717 0.52263319 1.4286251 4279702795
-0.62708968 0.52226722 1.4276251 4279438341
-0.62374032 0.52272415 1.428875 4279571211
-0.65101498 0.52835083 1.4274168 4279179280
-0.62745774 0.52659905 1.42935 4279438341
-0.62401319 0.52684915 1.4295001 4279571211
-0.65521252 0.53402305 1.4252501 4279376658
-0.6526612 0.53239131 1.4275715 4278850316
-0.65515506 0.53688931 1.4251251 4279376658
-0.65243924 0.53753197 1.4276946 4278981901
-0.65106392 0.54141355 1.4268125 4279245073
-0.64884007 0.54372144 1.4269167 4278981900
-0.64605045 0.54656094 1.4275626 4279113488
-0.64364904 0.54890716 1.4269167 4279112975
-0.64128464 0.55206728 1.4267083 4278981132
-0.63876367 0.55332011 1.4286875 4278718217
-0.6379658 0.55767447 1.427125 4278783752
-0.6401062 0.56355292 1.4262501 4278914826
-0.63699973 0.5623284 1.4275278 4278717959
-0.63381946 0.56391227 1.429625 4278848258
-0.64062983 0.56790477 1.4274168 4278914826
-0.63699496 0.56716353 1.4280001 4278718215
-0.63300318 0.56798458 1.4292501 4279111173
-0.62997383 0.56883276 1.4297501 4279569926
-0.6409477 0.57305193 1.4281251 4278914826
-0.63715625 0.57217342 1.4283613 4278718215
-0.63249373 0.57236224 1.4288334 4279242758
-0.62872356 0.57247901 1.4291252 4279372548
-0.64192528 0.57735664 1.4277002 4278981133
-0.63727409 0.57714629 1.4286251 4278718215
-0.63240165 0.57714635 1.4286251 4279242758
-0.62806165 0.57747233 1.4289501 4279372547
-0.64182806 0.58229077 1.4283502 4278980876
-0.63737935 0.58210993 1.4288611 4278718215
-0.63249391 0.58209854 1.4288334 4279242758
-0.62757194 0.58205301 1.4287223 4279372547
-0.6223498 0.58235461 1.4286667 4279045638
-0.6186502 0.58385825 1.428375 4279309829
-0.64158458 0.58733934 1.4273752 4278981132
